1.7461837964155889 1.4152480942435055 1.1936762976107071 
3.744337764537067 4.494263151328423 0.6641474730855996 
7.510054827412296 2.889619598011435 1.117492380572518 
3.0078468977660204 0.3446947138335793 0.2581597925970146 
5.250829536076436 3.0134110920781323 1.9684099677536777 
2.9952946155008737 4.4841152822070764 0.6696836854654399 
6.747560640781605 1.3365373737417008 1.1304976124159372 
4.742770547532542 0.28254836997178523 0.19918334737601182 
4.255406763162215 4.385646176164615 0.7603381099463241 
0.010735224091324057 5.095376940943401 0.05872578129287105 
5.50379457446409 4.750405111337359 0.440584113528191 
4.746567704509807 1.5381318026720816 1.303213317119735 
3.0064692494016527 1.7958942637007886 1.524118857692117 
2.498357109783025 1.3354217647400317 1.1259334553583171 
2.4927634751287426 2.1864976302835766 1.8679093864345069 
3.5015177016756787 0.8057942175524146 0.6668986774174925 
3.252001495194106 1.3710617358220374 1.1500199551058772 
1.9960805334889127 2.490910002760658 2.1438711831336117 
3.5096110850069064 1.2474036869563252 1.0474609373966262 
3.00773360385627 0.5758111256706455 0.4607841675645567 
5.507129541105182 2.6810012231496616 2.2338768041428754 
1.7593247879220937 4.422501481942871 0.7243540332550253 
1.7443903495251751 1.5854970432948035 1.3537881089371802 
1.5061971407447579 1.6509719474892666 1.4019822147168257 
4.755197705067366 5.086271775657476 0.13419848521388206 
2.258796085181986 4.755374119020882 0.4275167254539752 
2.2517818692277256 0.8606203582596459 0.7157628539466209 
2.4951926054014706 3.700105001729228 1.3533768115075617 
0.24654294710594962 0.6151446635497853 0.45363644353582283 
0.7542027072183521 0.4481058413407682 0.3481421716355353 
1.987898806310427 1.4008012362997675 1.1846293946391366 
5.0041351424334195 5.176465282430332 0.1385615762134109 
2.5119206121012145 2.486258897137228 2.1178816328630856 
2.5119206121012145 2.486258897137228 2.1178816328630856 
0.5082634893944193 5.2471137849747675 0.07905250524959208 
6.262513848243266 3.556155392351793 1.5022059170553783 
8.010076915127252 1.3814588007554531 0.3270741778070141 
3.509591191047372 3.9031065650159875 1.1706361086099455 
6.508050412670462 4.94907799678508 0.25470877080716336 
6.020945224691812 2.0327549017394277 1.7465866692182213 
3.509591191047372 3.9031065650159875 1.1706361086099455 
0.7598863313488603 3.044309131904306 1.3430603879262712 
7.011113190026345 5.189528691816903 0.12952667400949572 
4.261141947124784 0.9443908434826304 0.7998223586194046 
6.262513848243266 3.556155392351793 1.5022059170553783 
6.748879539982969 3.0620606398285304 1.9177937173232642 
6.020945224691812 2.0327549017394277 1.7465866692182213 
2.7637054163255312 3.6993604972571323 1.3547348302193936 
-0.008480465694544484 4.261660990700251 0.07128933736770836 
0.7669662784529191 5.281768608403211 0.0542148342730612 
7.7591546953783945 4.204719503457599 0.7229737052769402 
5.751778826542584 0.29066389972060636 0.22498605875591574 
1.9995577651254557 3.6184749978124624 1.4322411726446986 
3.7563574615462807 1.672185364522243 1.4278261378516737 
3.7543910022755496 1.9645460082502795 1.681670858388135 
2.5076684122024373 0.2959433350578129 0.20201902118233955 
7.508808037695122 4.084289911233563 1.0085833038640222 
5.245332639708137 2.895334046958463 2.0605926665189003 
3.75076236783771 1.5169370682511327 1.2764811679090258 
-0.001961482886021732 2.2750845999365867 0.003389026142501885 
7.511809016619491 3.0740521100302716 1.1240389261538086 
6.9978628193281756 2.4366011720654153 1.8957263202995218 
5.247000859953829 0.6879849882452376 0.560949609559978 
0.7497798162605154 1.176803888213824 0.99875799369688 
6.262513848243266 3.556155392351793 1.5022059170553783 
6.499726691521049 4.807564025617481 0.389402047641658 
5.760149152799184 1.101653450882479 0.9224386327120467 
7.502553029336811 3.4935791574098936 1.1210417128955728 
0.238508299960128 0.6939458367616288 0.4995809246819039 
4.759941666836105 0.7483891584138341 0.614022279146234 
4.751298991128647 0.43502162602644134 0.34363356702840175 
6.257816404184006 2.793190427715345 2.1462444755805605 
0.7431891848347986 0.2909875926240868 0.2145697226318624 
0.7542027072183521 0.4481058413407682 0.3481421716355353 
5.500949577627571 1.0302767334253498 0.8487727851951208 
1.2480124128173933 0.5182995028839423 0.41452612732578636 
6.009089779573512 2.091187534225088 1.7857424077829858 
5.255255501460236 1.7056897506971356 1.454793694149933 
7.76211249391815 2.1896885327013895 0.7205257796662259 
5.994098453036351 4.192371531407717 0.9147914040674593 
1.7595739108743782 1.8854420606420002 1.6078204217290382 
0.5010681008340202 1.3429417352320718 0.8757297155679359 
2.751221432745574 3.722609975821335 1.3373458584817945 
0.5006603471575153 2.140820348601208 0.8696299812032269 
3.254371888380257 1.5455373201732103 1.309394120106033 
2.5068443775221043 4.625274134387319 0.5573662551192544 
3.2532227596050802 3.094820602257885 1.8928638753503388 
2.5013108687190115 0.8061301745736548 0.6558982844438027 
7.503073646261242 4.239510327970263 0.8763996187792241 
5.753365892822194 3.4434619718798856 1.574668133121493 
5.513068691196943 3.1215310512639904 1.8691323834445306 
3.5001480586623344 0.1000673380853657 0.12250652217692508 
0.9997708559883878 3.8730002396745005 1.2106760426856025 
0.24249655470593104 2.949159499908288 0.3975504913818378 
3.0078468977660204 0.3446947138335793 0.2581597925970146 
1.2617834960973797 3.8388031487426173 1.2444646225027256 
5.507129541105182 2.6810012231496616 2.2338768041428754 
3.2605151291882652 3.5079869532059074 1.5456187651235573 
4.264756762523319 4.671080479620699 0.4969915757477712 
4.257061337705654 2.0340236200129427 1.7386497478287237 
8.008303831073537 3.7297141818873474 0.32809820637424225 
0.24618826507228836 0.35544652034566687 0.2784479974158551 
1.000887749782564 0.008590237400354925 0.0364171649721419 
4.501869354087649 0.35119130953039124 0.25575915439713404 
1.5066700558820565 3.0332081152925996 1.935901263147126 
1.5031372441187092 0.6370818780213368 0.5200693936851409 
6.24580971161004 3.8488788931435725 1.233863656662201 
6.997400124493116 0.5684041990629735 0.4535603618969884 
6.26449065198938 1.7452499793466074 1.484344400589327 
3.4948616313872454 0.6074909461481866 0.49335754736456616 
0.7460794568145773 2.019956936669268 1.321427857429201 
5.758549719430073 5.095528487840107 0.11738936814747136 
3.0023016066652546 2.466447176929276 2.122873399450965 
3.2446749739273404 0.643362669885116 0.5112689295038036 
8.012833137675432 1.7952782497117694 0.3277436650088113 
7.764377400415518 2.697644667679265 0.7123974911478974 
4.020470338172811 4.743582016541691 0.43226188768122525 
7.748751606019417 1.9860749568091456 0.7254576009242238 
1.2495120055184075 0.2801399089419552 0.19727991511770898 
0.7460794568145773 2.019956936669268 1.321427857429201 
5.996712851254591 5.239569420948286 0.07881403031410376 
8.000110966336944 5.086226980468121 0.15303849222595414 
1.7502605744715358 2.0135275547107105 1.724543843646666 
1.7632643639554584 2.134428951330394 1.8237849149076328 
5.245523119165171 3.2703679877182146 1.734644301738645 
2.5028122896922684 4.633948085307465 0.5347836750861845 
1.50157848776555 3.063193332677136 1.9209933716451946 
5.504902589267601 0.3993585605805886 0.3037815314356439 
1.998665645936583 2.2298615187347104 1.9123135891345573 
5.769789835004787 3.358793804551123 1.6508332415265143 
0.25447158901756317 1.844652568218926 0.4038804517378626 
5.000703148642174 3.928284145930567 1.1556905315951453 
0.2526631787603656 0.3108501863324065 0.22136079133892717 
3.755425974751208 5.137083142434348 0.10076411260544794 
0.2444467521495191 3.6982382378391137 0.38607421202336 
5.763350429600645 4.84584526103585 0.34096175694932473 
8.001047856962245 2.893128738756711 0.36278620444425946 
0.013308453025545404 3.6852428251925278 0.08429459887713586 
7.503569658815777 0.9512298327252628 0.794643802077463 
7.0117982909921395 5.228966631044026 0.08503564282651413 
5.513163190387437 1.0700115080013253 0.8902190820564894 
6.762360265949532 1.1546989741288356 0.973555791952584 
4.007271119999027 3.7863450553321725 1.276585037130875 
5.755225766899033 3.5362840937476423 1.51114298835304 
0.5018892494408257 2.961321530247037 0.8811165257450351 
1.0037756826198099 3.348987642361546 1.6745566218459305 
2.9952946155008737 4.4841152822070764 0.6696836854654399 
2.498705893933539 4.220238388613301 0.9026914343001362 
6.759646582675532 3.5861266825468188 1.4514242885528597 
5.9983693874091735 1.715872974670782 1.4629332790382539 
7.74726813647909 2.6302931658484345 0.7232094186229242 
4.012105066281358 3.6085114429996454 1.438117042580036 
1.4935868886656545 0.7109589778584844 0.5760271389773209 
3.007826714835988 4.58163039968089 0.5898184341321876 
0.7431891848347986 0.2909875926240868 0.2145697226318624 
7.517094607048506 4.938825003998968 0.2800665036293487 
3.005008131263826 2.083165137319283 1.783188588439082 
7.750447195425061 3.2399637837007935 0.7313449294574997 
1.0128449435958073 3.521135354974738 1.531963208271574 
5.769789835004787 3.358793804551123 1.6508332415265143 
0.4971259776811346 4.870803558052827 0.32984145657080965 
0.5093859715697382 4.517646641583213 0.6586339696093431 
0.7579117480144849 5.142326502823019 0.09642427454414841 
0.00742452672163984 3.7601273876585273 0.08713738328038417 
6.251088752212915 4.241389316154598 0.8817577623222299 
6.0026401346847 0.823918960841283 0.6730820014712022 
2.2506631235053556 4.8156024834005144 0.38812958239736156 
0.7501634189388645 3.8243660996909026 1.2631088239460448 
5.758549719430073 5.095528487840107 0.11738936814747136 
6.503568498350652 5.188341008718068 0.12038703938835399 
6.755206784105857 3.2186234737715598 1.7830401732529526 
7.993364555626424 1.675402471735834 0.3268668198130741 
4.000205356415766 2.6133700052650273 2.25355450316287 
6.503568498350652 5.188341008718068 0.12038703938835399 
1.4999590250050023 4.982167223087243 0.2330037258710855 
6.514022640362443 0.28368962365257233 0.20590649422947657 
0.25581794457181867 1.0004240835755098 0.403484544683865 
1.501755444471393 0.7093206303679953 0.5739664584159588 
4.7534813808199905 4.162858302583071 0.9454433737318853 
6.499726691521049 4.807564025617481 0.389402047641658 
7.258071436944548 2.5187846293313387 1.5062498529073811 
6.503340354334438 0.6284607232595002 0.5098014322946907 
5.760223888282127 2.647025599274685 2.2451886348957584 
1.257381858987285 0.03774658339045896 0.05072349795421423 
2.761442682649149 3.273410085051713 1.7251495176940546 
6.008003145272501 1.9209004349323846 1.6494403098846953 
2.5130923020104823 0.6385688111410802 0.5179208734362031 
3.0010174869832307 5.306953457913828 0.028387899448617502 
3.2523236296496187 2.8901013101872546 2.071355056991972 
3.00773360385627 0.5758111256706455 0.4607841675645567 
1.761979176403143 3.6546305160985777 1.4051968393999723 
2.743857530257561 3.0383647301455174 1.9420753749018103 
6.755206784105857 3.2186234737715598 1.7830401732529526 
4.249113007604695 4.3892145282284085 0.7532376487836812 
0.4956811102085517 4.228351658869925 0.8800600004297229 
0.2537006748484835 3.738670583992716 0.40746200746790895 
7.997739132542003 2.9915425685364645 0.3445926976031085 
6.99619354748675 0.8749465680747137 0.7218463061926876 
0.00622753357370223 3.1881306480875344 0.013546356766029999 
6.749426380619956 0.5591187435170641 0.4411601773150458 
2.9952946155008737 4.4841152822070764 0.6696836854654399 
3.4929790436506316 2.6546195180006373 2.242348024110583 
4.500636061683402 4.605120261122039 0.5738814363511199 
3.011128148926142 4.521412951488321 0.6404300330639044 
4.0011510043885545 1.8169846561437601 1.531625505690644 
1.7628097411230683 2.895044543366806 2.057167294544312 
2.5028122896922684 4.633948085307465 0.5347836750861845 
5.49886896334767 2.862638950349648 2.0874541573878407 
2.755022312060205 2.700970949778835 2.2508552321239814 
3.509591191047372 3.9031065650159875 1.1706361086099455 
1.7512647976886055 0.048421009200425524 0.07758684571839607 
7.997412372072076 0.6097668828032089 0.3091521053791768 
5.0041351424334195 5.176465282430332 0.1385615762134109 
2.5068443775221043 4.625274134387319 0.5573662551192544 
4.265252346286684 5.0692948320771665 0.15835320272594552 
1.000887749782564 0.008590237400354925 0.0364171649721419 
7.507626729913496 1.2245707463719262 1.092767541191017 
3.2387974202592673 1.9793076711946211 1.6907655212730646 
0.4971259776811346 4.870803558052827 0.32984145657080965 
3.009172238015144 2.7779875818251516 2.1762916057840993 
7.503971012752955 1.6096007875076295 1.139269997135629 
2.754020044537659 1.8389050180725262 1.569652542714666 
2.261214031672335 3.2598029548258527 1.7365431861150964 
0.24468696512155308 0.3984469320554503 0.2978141394372748 
8.016225522361653 3.4270630057104663 0.3352702100245999 
5.509679680022696 1.362311214256287 1.1490748648125282 
6.761887001898284 0.41353664117558464 0.31628343514642787 
1.5040131575168454 0.03091349140392123 0.055074309996608846 
1.2534963078852546 0.8581279438089591 0.7035969248886941 
6.755206784105857 3.2186234737715598 1.7830401732529526 
6.995528533774917 2.51431866946559 1.903893005388521 
3.2546915784177477 3.1747169475677492 1.8078333788933036 
2.2504231757876862 0.3220773154925708 0.2523171198570542 
0.9964007711718691 0.14895709574034582 0.07651228441044985 
3.750356304861842 2.1529623482594564 1.8324057036846957 
3.0013655496562297 0.2041409269438543 0.12895746125180504 
0.4956811102085517 4.228351658869925 0.8800600004297229 
7.99984936075986 0.30476893012576123 0.2265078873748346 
1.0051372992852892 1.2751305270812763 1.0638509581981261 
4.5127646471440155 5.228721764012844 0.09493151738169876 
4.7534813808199905 4.162858302583071 0.9454433737318853 
4.502148485992213 0.8770768218355156 0.7183041190776768 
5.513068691196943 3.1215310512639904 1.8691323834445306 
2.512605609664299 1.897301113486322 1.631151647269463 
4.4962975282853845 3.3969719675854657 1.625408121248581 
2.754486579967894 5.013120523733894 0.19519485909214818 
0.0025922549105677215 2.436474381129628 0.0017674200541447577 
4.742770547532542 0.28254836997178523 0.19918334737601182 
3.507085486047053 1.7669761458445685 1.5194905360343576 
2.752260722365011 2.938020826430897 2.0226332207246345 
1.251742841622685 3.0582103594879273 1.9106668953198658 
0.007349588945484913 3.7860132199505045 0.012971812243503165 
5.513068691196943 3.1215310512639904 1.8691323834445306 
4.503640423317142 4.877700730559544 0.33853537082319723 
1.0053493529241297 3.6243263980110494 1.4163678907364932 
0.5082634893944193 5.2471137849747675 0.07905250524959208 
6.263207190355622 2.0595516174637583 1.7584672368167478 
6.494339226829245 0.6014789181585126 0.48538487962815224 
2.757337969336877 2.5150190897353037 2.1608838075062855 
3.7524585172290994 2.9508694153722956 2.0075390320656443 
0.9944774938171222 1.0282873980518374 0.8550858515042267 
3.7543910022755496 1.9645460082502795 1.681670858388135 
7.24166580226228 2.1532186579639423 1.5289311159813095 
4.502912495203568 1.2462265775205483 1.045850547241748 
2.2578805650587896 4.590377532229163 0.5685155035223123 
3.7456648521989293 0.6981947770052785 0.5766613690267146 
7.255844600393423 0.13631806328671373 0.07238851831741482 
2.0061583247391086 5.043250054577697 0.18277390264752447 
5.0066045203284455 3.997394257080014 1.0941821810632657 
0.49980557806413795 1.3740308554644052 0.8658330961599333 
5.004372237348284 3.2014917686957554 1.7996587706476952 
5.993070644028473 2.693824902789901 2.2314054380039003 
2.7565439645320025 2.152022817460404 1.839434347673211 
7.25225300201118 1.4402369375905755 1.2273846418249312 
4.25663511028672 0.8125430717220435 0.6501122553901658 
0.9991351012321099 4.235484355355847 0.8813974845087 
8.010076915127252 1.3814588007554531 0.3270741778070141 
2.755022312060205 2.700970949778835 2.2508552321239814 
3.002946990626561 4.987015632659597 0.22801711227720375 
6.255678753995194 3.1469676172862813 1.8490580452194922 
7.997739132542003 2.9915425685364645 0.3445926976031085 
3.9994157667850705 1.966841334768023 1.6758383939807435 
8.006756436296303 1.1187320588360108 0.3322213979602333 
7.011266086293859 4.778479834562447 0.41202592588016734 
0.25532926039130865 3.194164129588293 0.3959815198659583 
3.7592874806098817 1.3514898581572232 1.135785123150256 
0.0003596523919883631 1.826479645600009 0.07546364288938136 
5.515277391279054 4.169498056773432 0.9458889804411487 
6.503340354334438 0.6284607232595002 0.5098014322946907 
4.0043334632653265 0.9517473104749528 0.7887442218095018 
7.249521447272596 2.115227884573159 1.529519449995212 
4.246304681672509 0.44642131955399933 0.3437689073456864 
3.749740662991176 4.860809799987224 0.34696720022510535 
5.513068691196943 3.1215310512639904 1.8691323834445306 
4.991356443575431 3.3307128721876404 1.6753275857180814 
2.511876377386218 2.6899358196649032 2.245934400441382 
3.4948616313872454 0.6074909461481866 0.49335754736456616 
0.7603854122922216 2.849705596424747 1.3450385418235276 
7.006460540232748 4.340026341369078 0.7922071181849852 
-0.006877785018527446 1.3657111147724312 0.0834117446955773 
3.9994157667850705 1.966841334768023 1.6758383939807435 
3.7504024526362465 3.6479352782377195 1.407683150826813 
3.2539016772053 4.1832093943286655 0.9355815933434746 
3.5023515998845665 3.909856247331178 1.18041467243193 
2.2479329364284237 2.2764921269045764 1.9561413489843673 
1.761979176403143 3.6546305160985777 1.4051968393999723 
1.749817758666876 2.0256447784683935 1.7298161375134324 
6.489408211151731 0.8691825017698527 0.7202916327450349 
1.0020415456355467 1.3448667823617109 1.1352515964266245 
3.752876228750117 0.18977632531752503 0.12360958381166089 
6.497409094400943 1.5303526427996075 1.2970223087871517 
7.503979334618251 0.33494054461454975 0.25101309333945815 
7.004339651449823 5.124174321260277 0.10593063450024603 
2.4927634751287426 2.1864976302835766 1.8679093864345069 
7.504039482197583 3.430529566540096 1.1171277152000505 
1.2508995443329647 2.272062614604053 1.953259783161591 
-0.0005105130495887075 4.208940164631964 0.005763907509130201 
6.745323280744397 4.103412816283279 1.004183462228325 
4.0083117234950345 4.343452714753609 0.7944704400758827 
0.9944774938171222 1.0282873980518374 0.8550858515042267 
4.749147802333824 0.5987754283745012 0.4888255494224038 
4.994577009859148 4.002663685825916 1.0853865154617985 
5.496549327820707 2.8790955361504893 2.0683559131635394 
4.249113007604695 4.3892145282284085 0.7532376487836812 
0.7502973148221868 1.432088745345931 1.2052314691791874 
5.512427525359522 5.177210094180593 0.12603226783973626 
1.2497767569848797 0.7363034435866026 0.6158377008560811 
7.750447195425061 3.2399637837007935 0.7313449294574997 
6.751001445266591 1.357260500689355 1.1476371141292963 
1.0059826469285302 4.858774903351052 0.32871103281912767 
0.7431891848347986 0.2909875926240868 0.2145697226318624 
2.502890833663467 4.397009605908011 0.7471582963080621 
0.9971990793404386 3.3207290721347635 1.6857714752871182 
0.9982986760859314 4.850373747713836 0.3500589539619263 
-0.0012576560231296204 2.973419150504965 0.003332913403496945 
6.489408211151731 0.8691825017698527 0.7202916327450349 
0.9971990793404386 3.3207290721347635 1.6857714752871182 
4.998623894108328 2.6856655533046667 2.2427223231470292 
7.501447977377466 1.7047231805075418 1.1205465828228978 
6.25167011454397 3.230345233939901 1.7719658607093076 
0.27023565200814004 3.066882815637759 0.42045637012421316 
3.50641421829044 4.255519268826833 0.8869038587432669 
8.0015956905163 3.374680516486937 0.3355290753202427 
1.0136050983728242 3.7712990343433357 1.2985921708660466 
4.0043334632653265 0.9517473104749528 0.7887442218095018 
3.989647823292425 1.0254533155013636 0.8545608670386944 
4.511990777687828 3.052222650868768 1.9189998199151652 
1.7530392554864571 2.131824054051588 1.8267400996577612 
0.7625028135314772 2.663591347963324 1.341734478903772 
4.25588933909601 1.3493613799928228 1.1556583006657386 
1.4989151803854572 2.105813507012602 1.8082212930675734 
5.25397264623116 5.220885500011873 0.10524952088598112 
3.751292224509923 0.09539434629694227 0.09961620070719177 
4.500636061683402 4.605120261122039 0.5738814363511199 
0.5022194914528543 4.45721813224882 0.6921707907402819 
4.000703596280594 3.4051644963391228 1.6146781477210899 
2.7479116366063567 1.1914989740327497 0.9898601123714961 
3.2538239831804616 4.978297188195528 0.23868427791601782 
4.003375324485514 1.1843147565481267 0.9859123863054658 
4.249113007604695 4.3892145282284085 0.7532376487836812 
0.7550528364221711 5.113780421460509 0.13081107251756044 
2.757337969336877 2.5150190897353037 2.1608838075062855 
0.2523320689757815 1.4502134690758044 0.39555502714409 
7.744425491001012 0.9638220714462781 0.7504365859153549 
3.50368150337847 0.6688506699798401 0.5411035271826092 
3.251482967650272 2.9175904888541666 2.0576023480690493 
6.753681143641478 0.5762804473617337 0.45155365960597177 
0.502352772552759 3.217600952444981 0.8682866557189786 
5.495884880871014 0.9527237742776998 0.7870396635225767 
2.2504231757876862 0.3220773154925708 0.2523171198570542 
7.50166005377165 0.14518006824805796 0.08570095804743895 
4.508062555412837 4.658118079222692 0.5199003143924994 
5.2562834677266785 0.18599925656423758 0.10997661727559913 
5.253535938120426 5.104758864836314 0.11814168499332492 
0.7429014177347174 2.983364478444804 1.328112012435819 
8.004043590172603 1.167702687717723 0.3319836101733838 
4.757461974523691 0.08649755657399515 0.10506507499662732 
4.260745546406757 4.856928542130796 0.33422378698111654 
2.0000533183904774 3.410619668738607 1.6139019796245129 
6.506602231319474 5.1830267194034185 0.05344141105887442 
0.24780327744091518 3.547526928742093 0.4036360880166662 
6.9978628193281756 2.4366011720654153 1.8957263202995218 
5.755225766899033 3.5362840937476423 1.51114298835304 
5.990200081341346 3.530498618313015 1.504729593782753 
1.502674330382996 4.886462246302967 0.3178364371994255 
4.260277562729274 1.5643865999085314 1.3101912757945295 
3.014607675995649 2.6211977328205585 2.2396972169537612 
3.755425974751208 5.137083142434348 0.10076411260544794 
0.011724577822939565 2.330502614529355 0.004917250647903851 
3.2587308601343294 4.185126392782278 0.9311547161765832 
6.747560640781605 1.3365373737417008 1.1304976124159372 
4.995323058417803 0.05104551179662615 0.06613632099189855 
5.75397455535319 2.787266676902495 2.1566823050871173 
5.257809167058156 0.04376244628537755 0.07087367755477937 
2.9936117291195807 3.888352228700494 1.1892763339559003 
8.004798275401683 5.185387329366425 0.11727198919571812 
5.5104260810494665 3.772466499520052 1.2981302930591816 
3.251482967650272 2.9175904888541666 2.0576023480690493 
1.503720882762189 3.255468538512958 1.7355116931574137 
3.5098138062946815 2.475636339838838 2.1350228482392213 
1.0083624907506894 4.09502984052019 1.0147314546073634 
4.261141947124784 0.9443908434826304 0.7998223586194046 
7.25225300201118 1.4402369375905755 1.2273846418249312 
5.753365892822194 3.4434619718798856 1.574668133121493 
4.752385000246834 3.694740461763897 1.3513371162331023 
7.00847052804876 2.3059579680817586 1.9265475376028205 
6.761887001898284 0.41353664117558464 0.31628343514642787 
2.503830457195927 2.774509245172705 2.1496541395999764 
3.514654409897188 2.325884359017208 1.99135610911934 
4.74646856414221 1.9601473733891839 1.6606231378078327 
2.9946171469663048 0.02878314542787623 0.06464905153796652 
1.2466137994691284 0.8904302097745159 0.7275887026323552 
1.760138337265161 1.2109513410646042 1.0184360038948284 
6.253063283065914 0.17902341712143707 0.11457618581369695 
3.4963082041706217 0.9625609658508465 0.798252948798609 
0.7531103122394789 4.033543111546749 1.0823077508235708 
7.748751606019417 1.9860749568091456 0.7254576009242238 
7.008321739388642 0.9568024349263302 0.7903419536580033 
5.25606275883479 4.820654413927822 0.3893762279661183 
3.747970673012691 4.97442704713883 0.24561909931797538 
6.751139162590913 4.776504660028038 0.4157838017305823 
6.747275727095398 0.98623447033792 0.8241150515317851 
1.0020415456355467 1.3448667823617109 1.1352515964266245 
2.9946171469663048 0.02878314542787623 0.06464905153796652 
2.5042037067012046 1.3652354416720816 1.1547688472619617 
1.5031372441187092 0.6370818780213368 0.5200693936851409 
3.7563574615462807 1.672185364522243 1.4278261378516737 
1.2518206406008554 0.27085545396892596 0.18226067051076883 
6.242560182058124 4.284757425346138 0.8479002610313447 
0.4998101791290134 4.232891692401834 0.8794892308020608 
4.0035493732279335 1.2335455927044428 1.0402016990672192 
5.007953279634739 4.281988725263936 0.8442240585733767 
1.251742841622685 3.0582103594879273 1.9106668953198658 
5.505816442599567 1.3639788823441426 1.1534612005459797 
0.5032354491049768 0.7418645950058643 0.6063857844424398 
7.249771825654949 1.5691052898151385 1.3257903754230176 
4.994939866653172 0.286034218634624 0.20904426931326053 
0.7565946135507248 5.084352477104381 0.13662200443562947 
3.7543910022755496 1.9645460082502795 1.681670858388135 
3.505581344320287 4.428586908381664 0.709789869150109 
0.9884737628811063 2.2064061647465354 1.9003874412236175 
2.504899560862357 0.1702210996359065 0.11729147994286222 
4.241241147693457 4.255235785628436 0.8883914991989594 
7.5034838320871176 4.841089151450033 0.35587416118937343 
6.019144094707666 2.243807171061114 1.9232747712247709 
6.5105411619758105 0.9718495108170299 0.8041362086139123 
2.2570284252986426 0.9760419104522626 0.8058761134550937 
6.99619354748675 0.8749465680747137 0.7218463061926876 
0.5093859715697382 4.517646641583213 0.6586339696093431 
7.503887697376301 0.9051828206306678 0.7429254226677212 
7.498557612003734 3.3833174123823935 1.119507536744631 
5.755632203476556 0.5028616197723723 0.393016224764156 
3.9946677523277296 1.3833188276484811 1.1661940999149887 
3.0023016066652546 2.466447176929276 2.122873399450965 
5.010831620505068 2.6522215785569383 2.2373976467102965 
2.261214031672335 3.2598029548258527 1.7365431861150964 
4.746567704509807 1.5381318026720816 1.303213317119735 
0.5060911053480464 2.1671873842121236 0.878315536128392 
1.496863832099739 2.688492885012414 2.249381546485853 
0.4956811102085517 4.228351658869925 0.8800600004297229 
2.511876377386218 2.6899358196649032 2.245934400441382 
3.758029564008848 4.878653689306809 0.31513550398683143 
5.245523119165171 3.2703679877182146 1.734644301738645 
2.004525580988308 3.8114902039791447 1.26022193916439 
0.7600221867281142 3.3969374056037207 1.327949226485797 
2.4932952327595133 1.6570874978135217 1.399582673440872 
4.241241147693457 4.255235785628436 0.8883914991989594 
6.755868849940755 4.822504128913025 0.3779236527745575 
1.2587945776333747 3.7021875143293035 1.359985802863174 
7.005837267013446 0.2507893929149419 0.1650845224755319 
0.007349588945484913 3.7860132199505045 0.012971812243503165 
1.2617834960973797 3.8388031487426173 1.2444646225027256 
5.50379457446409 4.750405111337359 0.440584113528191 
4.758952603574399 3.5478084278494513 1.4905139305539825 
2.502890833663467 4.397009605908011 0.7471582963080621 
4.23567491303072 2.0733890018830983 1.763730070069629 
3.9946677523277296 1.3833188276484811 1.1661940999149887 
1.749886231551582 0.6747898490847001 0.5444266805671163 
1.7532309903443544 1.3582825881719927 1.1435684697030313 
5.500088246095139 0.1957979936140672 0.12780591372305994 
0.00888135930498663 1.5418334046284186 0.004498982850841806 
3.9971274138409747 5.286620628311887 0.04064163648089317 
6.751350283051723 1.9217736866311232 1.635912088551865 
1.5031372441187092 0.6370818780213368 0.5200693936851409 
2.261214031672335 3.2598029548258527 1.7365431861150964 
4.502350079140917 2.2435103208046683 1.919130207091109 
0.255491057628947 3.575887440243717 0.4038686449828317 
3.003547392776902 3.277728634010087 1.7278980168890783 
1.5061971407447579 1.6509719474892666 1.4019822147168257 
0.9971990793404386 3.3207290721347635 1.6857714752871182 
1.2489792481800903 1.6851450193031203 1.430592667647138 
1.00751295883354 2.2990641026205028 1.9132638986197523 
0.502507892085424 0.3858541115522517 0.27390094129572384 
1.2551672134894025 4.059852626298348 1.0541131731093631 
6.755437966511998 4.509836818146582 0.6529413562642498 
2.752260722365011 2.938020826430897 2.0226332207246345 
4.261141947124784 0.9443908434826304 0.7998223586194046 
1.503720882762189 3.255468538512958 1.7355116931574137 
3.7571713535520774 5.172983873211544 0.07500807932763094 
3.751293365483825 0.03568551458986975 0.07135244192154423 
7.262116272189612 4.364166309964951 0.7745278564582799 
1.2609407184447552 2.469460917501612 2.1192246541290394 
5.749911815560726 1.018298773521396 0.8358859144918164 
3.989647823292425 1.0254533155013636 0.8545608670386944 
4.26290877944543 3.7610607421008044 1.2997907878686543 
5.496755082190067 2.3004693716265594 1.984148263821544 
1.005437451070215 5.1085954163941105 0.13076458683067704 
2.9961813553215686 4.32743108062613 0.8091194467568207 
1.4989151803854572 2.105813507012602 1.8082212930675734 
2.499877152869395 1.8267691995800777 1.5550626511039132 
7.006460540232748 4.340026341369078 0.7922071181849852 
2.006704191202173 5.036022594394756 0.17731572762430572 
0.7558337776456745 2.3728165917164246 1.3441516334172583 
5.25397264623116 5.220885500011873 0.10524952088598112 
1.5061971407447579 1.6509719474892666 1.4019822147168257 
3.741634471224944 0.6157630255081505 0.5023116397063146 
3.7542360238758117 4.1489927739499555 0.9721893026285287 
0.5018480037171883 0.05996225257838667 0.08283704404774775 
7.764377400415518 2.697644667679265 0.7123974911478974 
3.494198782769813 1.97617806767701 1.6636553341111977 
2.2570284252986426 0.9760419104522626 0.8058761134550937 
3.247248132239987 0.23257832048964683 0.16150616989130362 
8.0015956905163 3.374680516486937 0.3355290753202427 
5.755225766899033 3.5362840937476423 1.51114298835304 
2.5085565919699704 3.943448775924055 1.1491736103074177 
3.5098138062946815 2.475636339838838 2.1350228482392213 
1.7512647976886055 0.048421009200425524 0.07758684571839607 
2.5094922129530697 4.122190694532983 0.9800048568894331 
5.504902589267601 0.3993585605805886 0.3037815314356439 
7.755193051661311 0.5046925513249158 0.3945814655607117 
3.507085486047053 1.7669761458445685 1.5194905360343576 
5.015841889134952 4.1984049263514045 0.9166363117202001 
3.2486441593693063 1.7512352301539422 1.5076570979348936 
6.5042291150077975 1.002373262474519 0.839811490988104 
3.5103520830342476 3.9007757576499684 1.1739170064741449 
4.256257311986894 3.282840679296874 1.713209245767095 
7.503073646261242 4.239510327970263 0.8763996187792241 
5.745364769675958 0.6976698090163481 0.5691749685175584 
2.754020044537659 1.8389050180725262 1.569652542714666 
4.504268196375154 4.651277818087552 0.5274603925748501 
5.247000859953829 0.6879849882452376 0.560949609559978 
7.517094607048506 4.938825003998968 0.2800665036293487 
2.2620199223930557 3.8478898871189693 1.2253476106316472 
-0.0034761222691545 1.1916619816989993 0.07511115788657566 
3.003547392776902 3.277728634010087 1.7278980168890783 
1.5121937783930628 4.298858371742617 0.817522421560955 
4.502661493771716 4.4473865303209905 0.7045796005191668 
0.2651535256864378 2.6041591949504586 0.4107368463594287 
2.7546504526767 1.1061368104232776 0.9216584980404909 
6.747756623940931 0.2537782783816888 0.1793090888873742 
6.754574797748651 2.018562393953284 1.7213128211676219 
3.0014203210345545 1.3401063959761002 1.136718865069434 
6.00195321355284 0.07886676212324424 0.10284357635717128 
3.252001495194106 1.3710617358220374 1.1500199551058772 
5.250259996838519 3.2256526701830253 1.7703014304153193 
6.249626383877462 3.9002734590958035 1.1843109853778613 
2.9946171469663048 0.02878314542787623 0.06464905153796652 
1.257223185334469 3.970260024051089 1.1172613232513473 
2.007062272713707 1.8092553515341407 1.5488714034212199 
7.503971012752955 1.6096007875076295 1.139269997135629 
6.995856800620787 3.5269154073704567 1.497287045500878 
5.009402687732281 4.87870676862771 0.3202927446366486 
5.260618130512117 2.7962096951772035 2.142923200932273 
3.758029564008848 4.878653689306809 0.31513550398683143 
3.505943468309155 0.5339258673946441 0.4210105882183885 
6.263207190355622 2.0595516174637583 1.7584672368167478 
3.4982630697818076 5.061941192154026 0.16146704245179905 
2.5094922129530697 4.122190694532983 0.9800048568894331 
5.9983693874091735 1.715872974670782 1.4629332790382539 
0.7548258309603989 1.7553065566889536 1.42981883486166 
2.502890833663467 4.397009605908011 0.7471582963080621 
0.4956811102085517 4.228351658869925 0.8800600004297229 
4.749093121055269 2.2875581170503057 1.956845471782283 
2.252545214386779 0.9571770577474921 0.7989928797831596 
1.257381858987285 0.03774658339045896 0.05072349795421423 
8.000509384917935 3.357440537191234 0.3392050963472167 
3.5063363946399 0.9567225758462189 0.8045155843682952 
3.5096110850069064 1.2474036869563252 1.0474609373966262 
8.012812834618527 3.8086381196390655 0.31816678588795516 
0.002736190321809232 2.0200958139755616 0.008980693866903942 
6.242560182058124 4.284757425346138 0.8479002610313447 
6.749426380619956 0.5591187435170641 0.4411601773150458 
0.9961751378959701 2.277901885788833 1.906140072155858 
1.5120344372447698 3.375532152789737 1.6361142284982204 
1.5120344372447698 3.375532152789737 1.6361142284982204 
2.9904451885292183 0.9171371948836604 0.7634497668881326 
2.498705893933539 4.220238388613301 0.9026914343001362 
1.7443903495251751 1.5854970432948035 1.3537881089371802 
8.0015956905163 3.374680516486937 0.3355290753202427 
8.004006410205605 0.5244924206282371 0.36089863948514467 
2.5130923020104823 0.6385688111410802 0.5179208734362031 
3.7522095482856153 2.3682608129854765 2.0204350858209037 
1.251742841622685 3.0582103594879273 1.9106668953198658 
5.512427525359522 5.177210094180593 0.12603226783973626 
4.260277562729274 1.5643865999085314 1.3101912757945295 
2.7579033098829053 0.7344350786393604 0.5966478517311314 
2.0108309088408496 3.0206498202318244 1.9523011330814517 
1.7461837964155889 1.4152480942435055 1.1936762976107071 
0.005265849587539184 5.023493953973749 0.006164560855582257 
1.7456524948525347 4.842189267411606 0.355380696940019 
5.753365892822194 3.4434619718798856 1.574668133121493 
3.00367631558046 0.17158666620556506 0.1026469381333748 
4.755197705067366 5.086271775657476 0.13419848521388206 
6.500029002138924 0.3365772956067856 0.25233792980458536 
6.748840925329169 0.890317211284591 0.7258787735189733 
0.2510265003028731 0.5249575036661983 0.4044832454192672 
0.502352772552759 3.217600952444981 0.8682866557189786 
7.993364555626424 1.675402471735834 0.3268668198130741 
3.262287376823905 4.301888248874892 0.8313641075267133 
5.004372237348284 3.2014917686957554 1.7996587706476952 
1.7423341256246445 3.5575156192744424 1.474936806775286 
2.7557583146175206 3.9285785801163575 1.1356074888031669 
1.9993669093414412 2.7115892938478905 2.224595687461595 
7.9969813422639975 0.24506681074507028 0.15853325857125775 
0.013308453025545404 3.6852428251925278 0.08429459887713586 
0.7555395639018421 2.737509177044857 1.3451893287834658 
7.493249112583448 1.3840644052781979 1.103689664040164 
4.257061337705654 2.0340236200129427 1.7386497478287237 
4.0043334632653265 0.9517473104749528 0.7887442218095018 
1.2466137994691284 0.8904302097745159 0.7275887026323552 
1.0035363888319906 2.054003062527318 1.8242835455999944 
1.005437451070215 5.1085954163941105 0.13076458683067704 
2.757023244878207 3.5984873368949484 1.4409002714276717 
4.4962975282853845 3.3969719675854657 1.625408121248581 
6.753681143641478 0.5762804473617337 0.45155365960597177 
3.749740662991176 4.860809799987224 0.34696720022510535 
7.256390372616589 4.82087351689978 0.3673638663534269 
3.743714891248262 0.2783076003798887 0.1980892395992322 
1.005437451070215 5.1085954163941105 0.13076458683067704 
2.003458640887491 0.11205916423790893 0.13032689991466914 
2.521022526005763 3.2046846581892017 1.7809218827409494 
5.739350045026633 3.8366188517057354 1.2382431218722414 
5.002595502893737 1.5080542398221592 1.27514020554182 
2.5038655014982494 4.713914594681193 0.4842543013097018 
2.261760448900905 4.412448766323582 0.7370166588270372 
6.503028707664635 2.9537080789013617 2.0088813857323573 
6.5042291150077975 1.002373262474519 0.839811490988104 
6.995528533774917 2.51431866946559 1.903893005388521 
6.758473792410837 5.171130516036396 0.07573761808747206 
0.2582820998231714 4.9046409470857855 0.3013677280612931 
0.7625028135314772 2.663591347963324 1.341734478903772 
7.9959606521395825 3.2255420694382013 0.34172891825843094 
5.758549719430073 5.095528487840107 0.11738936814747136 
4.260745546406757 4.856928542130796 0.33422378698111654 
2.5047589604467015 4.35521852012184 0.7867374687376163 
0.24654294710594962 0.6151446635497853 0.45363644353582283 
0.006291440328437047 2.732181882830094 0.024103874355014397 
6.758473792410837 5.171130516036396 0.07573761808747206 
3.7592874806098817 1.3514898581572232 1.135785123150256 
2.511876377386218 2.6899358196649032 2.245934400441382 
5.003723549640005 4.2066493610661775 0.9146942023402309 
1.4995337387316356 1.9852542569534977 1.6879504567472656 
0.25739214741318284 4.859794065388467 0.4083504754961335 
4.011357533928735 1.658345352113862 1.4041951554931178 
1.2534963078852546 0.8581279438089591 0.7035969248886941 
1.005929539972661 3.4778659048906633 1.5489730365323269 
6.747251056653202 4.191883421707577 0.924915803280954 
3.509591191047372 3.9031065650159875 1.1706361086099455 
4.502148485992213 0.8770768218355156 0.7183041190776768 
5.751778826542584 0.29066389972060636 0.22498605875591574 
4.260320304095432 4.845771430348363 0.35886640636684264 
1.761979176403143 3.6546305160985777 1.4051968393999723 
2.261214031672335 3.2598029548258527 1.7365431861150964 
7.24166580226228 2.1532186579639423 1.5289311159813095 
7.501447977377466 1.7047231805075418 1.1205465828228978 
4.007271119999027 3.7863450553321725 1.276585037130875 
5.006637793837489 0.31150955259275764 0.23131950791269718 
5.265096369941299 2.48511017706395 2.121421209283109 
4.500182495936431 3.106622267768585 1.8788014125151478 
6.251088752212915 4.241389316154598 0.8817577623222299 
3.26127411472426 1.498658670426217 1.2695942019220852 
4.746567704509807 1.5381318026720816 1.303213317119735 
3.7403898484820384 2.245090779417689 1.9208437418344833 
0.5205069395772304 0.5393886397146456 0.42064277356138935 
7.265701027156968 4.346286387536859 0.8052727352522786 
2.2544564744443054 1.529584210372882 1.288904501545614 
6.754574797748651 2.018562393953284 1.7213128211676219 
4.759810987230738 2.6139483517376587 2.2498541919285846 
0.757765967426762 0.39790732087816705 0.302391175151971 
1.7530392554864571 2.131824054051588 1.8267400996577612 
-0.0005105130495887075 4.208940164631964 0.005763907509130201 
5.003871482963257 1.4445843366000102 1.2129389444753111 
0.25447158901756317 1.844652568218926 0.4038804517378626 
0.25532926039130865 3.194164129588293 0.3959815198659583 
7.26069704835547 3.9879393653218336 1.10551538833867 
2.245658109922995 3.637892623155663 1.4070974709318895 
5.49886896334767 2.862638950349648 2.0874541573878407 
7.761701493114854 5.020991237271573 0.19530350296524332 
4.246304681672509 0.44642131955399933 0.3437689073456864 
0.7542027072183521 0.4481058413407682 0.3481421716355353 
1.0116673910742973 3.6684401072650505 1.3966205545057966 
2.5098634743431103 5.246972715724322 0.07174108710844128 
3.7512313700730844 1.9114676436051004 1.6302851630875164 
7.006266064508615 1.9833207971764417 1.6912296222942576 
5.25605487290434 5.034359567270634 0.17226000595474364 
7.0080336823868885 0.8824081818439877 0.7217213188144359 
0.009991365160615108 1.43836521952616 0.006779689194929916 
3.0014203210345545 1.3401063959761002 1.136718865069434 
7.744425491001012 0.9638220714462781 0.7504365859153549 
4.0011510043885545 1.8169846561437601 1.531625505690644 
0.7625028135314772 2.663591347963324 1.341734478903772 
0.7608181424252897 4.873156540907106 0.3315997419647781 
1.2518206406008554 0.27085545396892596 0.18226067051076883 
4.0082210133820135 0.16374931033863074 0.10297752948790219 
5.753365892822194 3.4434619718798856 1.574668133121493 
1.7514494435472259 3.341654248829732 1.6806994030298479 
5.51376199585515 4.479940383596291 0.6782263573700563 
3.014607675995649 2.6211977328205585 2.2396972169537612 
1.9960805334889127 2.490910002760658 2.1438711831336117 
7.00428986605492 4.036595026470593 1.0762799393980729 
2.2620199223930557 3.8478898871189693 1.2253476106316472 
8.000509384917935 3.357440537191234 0.3392050963472167 
5.003374417426424 2.1290438104837954 1.8234572856569566 
2.9936117291195807 3.888352228700494 1.1892763339559003 
5.504902589267601 0.3993585605805886 0.3037815314356439 
4.260745546406757 4.856928542130796 0.33422378698111654 
3.4928831178009565 3.4638103951843044 1.5666191243400331 
0.7669662784529191 5.281768608403211 0.0542148342730612 
0.24721747923114576 4.621992361790655 0.4941459693436706 
8.010580007934161 4.600170007917253 0.3323195572947655 
2.7511253137138523 4.4648950456042185 0.6904971637970199 
3.2605151291882652 3.5079869532059074 1.5456187651235573 
2.500624795578961 0.41852809772525296 0.3221634134230385 
7.748751606019417 1.9860749568091456 0.7254576009242238 
8.006090737784907 0.061347663668140706 0.08707845686531587 
5.990200081341346 3.530498618313015 1.504729593782753 
0.2561818821085086 3.546282012759869 0.4113843078991942 
4.004203582122123 5.117030239752288 0.10225462297546838 
7.508808037695122 4.084289911233563 1.0085833038640222 
0.5008835638416339 2.2967507395433615 0.8481420264512388 
1.4998970934342795 4.680865562123853 0.49851395283401656 
5.739350045026633 3.8366188517057354 1.2382431218722414 
2.2519827632159712 4.110515787840594 0.998428504094291 
1.4998970934342795 4.680865562123853 0.49851395283401656 
3.743714891248262 0.2783076003798887 0.1980892395992322 
5.754731569906796 2.501550204917929 2.1393066005592947 
1.749817758666876 2.0256447784683935 1.7298161375134324 
1.000887749782564 0.008590237400354925 0.0364171649721419 
7.497169506938221 0.29739559716549596 0.21811662555484332 
3.0056004412257193 4.646105814199005 0.5251244392480201 
3.243270082783192 0.39817600941928444 0.3124687759288401 
2.5068443775221043 4.625274134387319 0.5573662551192544 
3.252001495194106 1.3710617358220374 1.1500199551058772 
6.99619354748675 0.8749465680747137 0.7218463061926876 
6.0075462301457 4.694546070415944 0.49434288142974914 
0.9961751378959701 2.277901885788833 1.906140072155858 
2.507270296482597 0.5797062675591402 0.44760992318462156 
5.496755082190067 2.3004693716265594 1.984148263821544 
5.250281785643635 3.6392670303144934 1.4157283761896122 
6.758217401043198 1.5002704537176503 1.2725548869879197 
6.755066872495283 4.1145603568034375 0.9867493378908473 
3.505581344320287 4.428586908381664 0.709789869150109 
5.769607350517096 5.0685744871749305 0.15754214611801465 
3.5063363946399 0.9567225758462189 0.8045155843682952 
0.24020789537877327 1.0540839379938938 0.38117230882631814 
2.0047490385829216 2.088135294297678 1.792793688373367 
4.750843964902364 4.889469932678605 0.3227568571618602 
4.500182495936431 3.106622267768585 1.8788014125151478 
4.254322842116298 1.6592080007033048 1.4034166356662692 
3.2510373098410463 1.7176171738169397 1.4538739270774725 
2.5085565919699704 3.943448775924055 1.1491736103074177 
7.7591546953783945 4.204719503457599 0.7229737052769402 
0.24654294710594962 0.6151446635497853 0.45363644353582283 
5.009402687732281 4.87870676862771 0.3202927446366486 
1.0083624907506894 4.09502984052019 1.0147314546073634 
2.7557583146175206 3.9285785801163575 1.1356074888031669 
3.750356304861842 2.1529623482594564 1.8324057036846957 
5.75615563302117 0.7499961697531592 0.6177714998989808 
6.499829619257578 0.19318922701405872 0.11747281649351655 
5.25606275883479 4.820654413927822 0.3893762279661183 
5.9983693874091735 1.715872974670782 1.4629332790382539 
1.2524138849662005 3.0811038131039985 1.9000019012466507 
6.255820008806868 3.939431966165226 1.1533385192390413 
2.9995464070493774 4.601341572734644 0.5760635172312002 
5.505816442599567 1.3639788823441426 1.1534612005459797 
2.5012242227508863 4.015974841170206 1.0812727611908044 
2.258796085181986 4.755374119020882 0.4275167254539752 
3.007826714835988 4.58163039968089 0.5898184341321876 
1.9993221426574006 2.3686412113861937 2.0255574095326314 
1.5099509199873837 2.064012739656327 1.7595017992040904 
1.9993221426574006 2.3686412113861937 2.0255574095326314 
0.2523320689757815 1.4502134690758044 0.39555502714409 
0.5028565473594485 2.795995180607193 0.85792661233442 
2.752864824451144 4.942060908327907 0.2593136494707951 
8.004043590172603 1.167702687717723 0.3319836101733838 
4.256478132515711 5.219667512556604 0.10925780876393407 
5.25605487290434 5.034359567270634 0.17226000595474364 
6.762360265949532 1.1546989741288356 0.973555791952584 
1.4979038615622835 3.097078799532599 1.882973846671164 
0.2580922877991577 4.163458113251065 0.39465663962535696 
6.5042291150077975 1.002373262474519 0.839811490988104 
2.008497128317102 4.30176549870254 0.8316183839685235 
5.49886896334767 2.862638950349648 2.0874541573878407 
6.762436530778415 4.4921369041255215 0.6588212834612407 
0.005265849587539184 5.023493953973749 0.006164560855582257 
3.743714891248262 0.2783076003798887 0.1980892395992322 
0.9937436528044638 2.7837701792231515 1.815059220944634 
2.003458640887491 0.11205916423790893 0.13032689991466914 
0.7449088673338058 1.1689542043630279 0.9741690857450488 
3.7634902315359646 0.799437534707721 0.6598354562650787 
0.0026511864036179522 1.04280558515916 0.09435751766604722 
4.25450142635816 1.9648000768929386 1.6750946680056618 
3.494198782769813 1.97617806767701 1.6636553341111977 
3.7382386220906993 0.994172084802556 0.8306907557403039 
8.000110966336944 5.086226980468121 0.15303849222595414 
7.006266064508615 1.9833207971764417 1.6912296222942576 
2.7637054163255312 3.6993604972571323 1.3547348302193936 
5.739350045026633 3.8366188517057354 1.2382431218722414 
6.5042291150077975 1.002373262474519 0.839811490988104 
0.7600221867281142 3.3969374056037207 1.327949226485797 
3.997307201017667 2.862887371642581 2.090035512861758 
2.993265702810528 1.1104024272323325 0.9257158468198702 
4.0043334632653265 0.9517473104749528 0.7887442218095018 
2.011212220074454 4.970193551812909 0.24576448792468933 
0.5018480037171883 0.05996225257838667 0.08283704404774775 
5.002559862742315 2.0649895119565644 1.7541216741653483 
3.507085486047053 1.7669761458445685 1.5194905360343576 
5.003723549640005 4.2066493610661775 0.9146942023402309 
6.503724368755462 2.2226283023184337 1.9145740070064348 
3.2486441593693063 1.7512352301539422 1.5076570979348936 
7.247469737774212 3.4402360234204346 1.5359967706556528 
8.007866460374096 5.134378497866365 0.08939241934661887 
0.4971259776811346 4.870803558052827 0.32984145657080965 
5.513068691196943 3.1215310512639904 1.8691323834445306 
4.998623894108328 2.6856655533046667 2.2427223231470292 
3.7542360238758117 4.1489927739499555 0.9721893026285287 
3.7525863617300415 4.97413120915615 0.23084058760163606 
1.7445491397572135 1.6059460675534902 1.364308090935117 
7.502216064558433 1.3925246667208402 1.1399331186628 
3.505943468309155 0.5339258673946441 0.4210105882183885 
-0.0055720921081713615 2.3457628011039517 0.012135103432238397 
0.7502973148221868 1.432088745345931 1.2052314691791874 
8.004798275401683 5.185387329366425 0.11727198919571812 
5.513068691196943 3.1215310512639904 1.8691323834445306 
5.015841889134952 4.1984049263514045 0.9166363117202001 
1.9988351466443341 4.922597652110759 0.28486137737628314 
1.7445876279664911 1.941132035472212 1.655494035393192 
8.006117519048058 2.904999524893024 0.3380661506064928 
4.2525483246285685 0.5519185900737845 0.4413612777745261 
7.506924784395168 2.683007714270384 1.1134952657167576 
