1.2528091916992632 0.04296078146668311 0.051799520339382996 
6.001538077736141 3.115315592434211 0.45970188809827245 
5.008478743967498 7.491173031516253 0.3167651734132947 
-0.7404624620102963 1.5919145385679858 0.12664716667442016 
3.2499065827572076 6.601060120788135 1.4281536534413186 
2.0111062329941873 2.0445388131680526 1.5333976466291785 
4.258616781820628 4.591722765074183 1.867875675567999 
3.0044758811171977 0.826276936253285 0.6314616252595756 
6.258218313149814 5.901748380570753 0.09460068370887414 
4.0061456062262994 2.8366106022730597 1.6399247320377122 
6.272519791810435 5.833243507419425 0.11583070327173195 
0.2500203687317464 2.0101536467594547 0.9216657882184937 
3.5073010401916704 6.73200266817489 1.3156635006018553 
0.010670505326745697 7.926787679228908 0.23438761218718288 
2.0006985980303345 4.032914763779232 2.8105972087099547 
-1.7395627181693663 4.005336239500767 0.3794626259176503 
5.252645704319214 6.196105963365918 0.6368189467206009 
1.0173000522122537 3.6131532329011407 2.009696154061892 
1.4995340596558264 3.484181698377056 2.2897703816168127 
2.2535930694863637 4.171900383478031 3.019290591078958 
6.006418702961749 4.22400448975815 0.8554220800273924 
6.515739636887613 4.830647812395659 0.3317169586592115 
0.2516002265144116 3.530159662366584 1.483366455784257 
0.0057480795252973305 2.108740200116301 0.8031929818584381 
3.269164325316198 2.2439001301120585 1.68589041130222 
4.7599882509907205 3.8737083568928248 1.544037251598815 
0.5035823914482873 0.36255878161030247 0.29441036911402796 
5.5136062212431876 7.063978973754488 0.14009356887264576 
4.260211289164128 2.480900644382406 1.351573731464973 
4.75417427804494 7.150532732680246 0.6023288448476296 
4.25834368336757 1.1593156717387814 0.8471884450666315 
3.0122213839579914 2.5663469643522996 1.9212362639861766 
3.5069282412367175 6.279896844944949 1.643517331283892 
3.502091915133794 0.878473149058389 0.6615923144035075 
-1.2425104333516535 4.413300818806507 0.7366802378157479 
3.50845495538504 4.94239570183804 2.2307828731463353 
-0.7379655905535705 5.911346228051453 0.48832847243641075 
3.2486863257731264 8.412096430257337 0.06345683302165021 
-0.2423103262791592 2.1468795254107826 0.6497519264151789 
5.013741595633948 4.376471287644518 1.4708782753907863 
5.001217706841925 4.411649689840437 1.4636563175394528 
2.238105340983332 1.4767460441052815 1.117667355040575 
4.255820734473356 6.2654240883596035 1.2423459103117207 
5.507350556489637 6.018986061614965 0.5460880608210635 
4.2534692714522855 1.8512585373839232 1.1280726306950382 
2.2666085312038144 4.495795625580247 2.9423959191019895 
3.499468092864127 0.9610209723739139 0.7196316067758147 
3.2502983536815524 1.670074286280557 1.2686341610609608 
4.516016692814508 6.741276289379405 0.913776604720804 
3.0034288278522765 6.277655976489776 1.6455757285267412 
4.258616781820628 4.591722765074183 1.867875675567999 
0.7559757022054946 7.520150413491657 0.7247025129779882 
-1.4888899141062415 5.232643236236537 0.24935471557373629 
2.5171719394874335 5.132616562562463 2.5176417935507382 
4.750795175573968 8.234330553339136 0.1701359034785646 
3.500042839735581 2.351264039632644 1.766056878202586 
1.5069498833420323 1.9244055873814467 1.443726192527308 
4.7509516915622525 5.78688619492252 1.1108420244748283 
5.499946381960853 5.087102354964621 0.8869067153685284 
2.4977066316556016 4.568167554431588 2.924119599522664 
3.255903848119333 8.391601047179046 0.08084192319564514 
2.256369082677184 6.2131630735903585 1.6990534757980629 
1.2476529933148308 1.9726034276692792 1.4879652158698382 
6.752014068797569 4.819474365642351 0.15639914459022303 
-1.7373927985729072 4.356988618573168 0.43644440919625616 
3.747001703973483 3.8599904208707687 2.1933323484307725 
3.5028247221089446 2.7528248091830423 1.9341435798397142 
-1.74929584228452 3.8455183631902687 0.32707222206570913 
3.010464560750417 8.268231930757981 0.15794010184358595 
0.7601042878712255 5.593960465205824 1.5911148600845038 
1.7448581740623277 4.015176688902007 2.646839269014448 
1.004775151503655 0.8857862103673992 0.6732189346992828 
1.0139446230765614 6.740336617072408 1.2978717362102383 
3.7567072156594072 1.3284721078291937 1.0099864903314437 
3.001867765967407 3.761488863843581 2.6277804338085455 
0.014464563097419048 0.13819521245092117 0.07845433246523682 
3.0070345277075736 3.5325044695499526 2.537443473121181 
6.272519791810435 5.833243507419425 0.11583070327173195 
4.009165121548443 3.250425292056264 1.7992698174156714 
2.992874241035075 5.367225260163112 2.3295342719757497 
2.749695531484677 1.5432830121183934 1.154816768187364 
0.0012082325961987948 1.2510964659045505 0.47918459209825764 
3.999966096979025 0.3718973676045641 0.2772661822907617 
1.7609662913272437 6.942241443502536 1.1573365562996587 
0.7589239438814206 6.263547505193009 1.319005156777611 
2.992874241035075 5.367225260163112 2.3295342719757497 
4.7507783621076785 7.236645209707054 0.5646945552117495 
-0.4872771561126606 0.6874941095050794 0.024204438929964066 
-0.009958227579914443 2.2675781204743157 0.8447524059272744 
2.7535701906740218 1.0898238689983366 0.8228770228428444 
1.004587921019152 2.898796749276982 1.7414427379743425 
0.5178147295310662 8.37553924922536 0.0870390087388455 
0.7610054831937522 4.935688155811333 1.8275406978659072 
4.746001366796507 7.599789629970906 0.4313209258144017 
0.7507874521577094 7.088815209197763 1.01017780102454 
-0.4973497477786056 3.5821297264904417 1.032298999439299 
0.7564194954853934 2.1493454877763534 1.3145822036220691 
0.9927517218571642 3.9481835127655036 2.1237140070693115 
6.253033034199593 4.215005983971603 0.6937054985659826 
-0.2397272448672714 5.53299557046731 0.9480623685492309 
-1.254012775290185 3.5718030631363984 0.5325636037821478 
2.7546651059842184 1.3024769547652824 0.9973471585153985 
-0.7388352407817737 4.118957713619291 1.0856651920601028 
0.7704430417145577 1.9779813584914563 1.2397942377696243 
2.755073243851776 6.4734581731359775 1.5135031565762391 
5.0019722535589946 6.84970232127804 0.551249183114504 
3.998070755023044 4.600383326502108 2.0354862534353386 
3.2509139972661014 1.7155123284570535 1.298876406910849 
-1.5022440709036629 4.269848367957894 0.6037077571402742 
3.5036689316204943 3.178260175656383 2.0908638686273875 
1.262728259890366 2.0321235900228216 1.5257280595703557 
5.254882888851717 6.132146252981786 0.6491229408615857 
0.5120360889680634 5.546370273396825 1.4405834358591474 
6.2598266519681065 5.627325043411885 0.19005215444422874 
3.258363820502138 8.312110392458601 0.15412947150245918 
3.7629539073759677 2.430303351320464 1.6552722203283798 
6.991994915606212 3.8827154314932577 0.1041467755972405 
0.25590774576167746 4.452056553416921 1.6789784375724246 
4.997246892496664 1.4930754147952203 0.4896168130404657 
1.2646671124619817 2.4883038601828025 1.7564572381012507 
1.758127006600741 4.838539166509079 2.5099765974522135 
2.5077349780157974 6.937328584171532 1.1546132535342317 
0.012879084391531355 4.808632403467391 1.3912578826342703 
3.7508271858384767 4.700319990998067 2.1687231076654188 
1.4983260208123925 1.2456951640364602 0.9411099554196506 
-1.0008667389374697 2.7559539446110786 0.3993052249683188 
2.5078297193071117 2.3064278314435454 1.732156311355938 
3.759496523094432 3.3730747894611177 2.005022009458692 
5.7605017444384545 5.810481217701028 0.46104742536168597 
1.5087171920728928 5.0412036937239195 2.274065147065598 
2.9978663825517367 3.3434602308085184 2.4653414852370417 
-0.4872771561126606 0.6874941095050794 0.024204438929964066 
6.004778979727239 3.2106497096028894 0.4745861628792583 
4.516016692814508 6.741276289379405 0.913776604720804 
1.7533220786793695 2.176087985363826 1.6173679395846974 
-1.0069932665323036 5.527498883396197 0.46904867192882244 
1.7555975769596097 2.9065939475221922 2.1845264582327557 
4.5068000377656645 7.915834224333521 0.4259294836261575 
1.0055892778269269 4.1910842136304165 2.214975687807899 
1.2617199812692323 3.130934066214606 1.9886398067751139 
3.500042839735581 2.351264039632644 1.766056878202586 
-1.2480033910812731 2.8486528483400164 0.2653052334287272 
5.7464013709569395 4.465861085460228 0.9505786235726136 
0.5110824342480693 2.411382388780791 1.234607871764166 
5.0144784565422444 4.961582319039916 1.2457302079027919 
-0.7388352407817737 4.118957713619291 1.0856651920601028 
3.7512117756469703 6.922383881954637 1.16622979561691 
0.25857360825506526 1.043900910904123 0.5642921017750179 
1.0173111859378985 6.988811953225889 1.1264849927119125 
6.502479187364047 3.681572833800909 0.3401154101792455 
5.254325093680091 3.0795420069677824 0.9367878451789295 
-1.74929584228452 3.8455183631902687 0.32707222206570913 
5.0038219440165514 5.218594419795024 1.1457501077327923 
-0.24171003521839224 3.1706853062292844 1.0243890378978362 
2.5000966861244023 8.18844999227817 0.23784508015559214 
1.5127085760961934 3.5070186681565936 2.2886754324141516 
4.7599882509907205 3.8737083568928248 1.544037251598815 
-0.7483261022064435 2.3076223673424514 0.39838743871497334 
4.00643584285082 8.172478938237115 0.24827963077121643 
2.503513678547098 8.127388046517568 0.280691965978234 
4.754857283277532 5.0794816671951555 1.361134362736109 
4.001275989375045 4.021180026928363 2.0858498661223837 
4.996891318874791 7.988536678281137 0.12612225958285833 
6.2562438710161485 5.61415284363183 0.20568302778205594 
2.2628847807237 4.038883672660047 2.981092673451368 
5.499946381960853 5.087102354964621 0.8869067153685284 
2.508252780960634 6.991871315337987 1.1081029951597618 
5.0019722535589946 6.84970232127804 0.551249183114504 
-1.4924052721512318 4.329047262217467 0.5998175616815108 
3.255903848119333 8.391601047179046 0.08084192319564514 
-1.4961022518709552 3.052209223295814 0.19269741873564633 
3.009030769499969 8.017457815103667 0.36130539857072014 
4.257816517757907 5.76292049392108 1.4525354153239358 
3.2509139972661014 1.7155123284570535 1.298876406910849 
5.002848556640217 7.653569842498487 0.24133805234454297 
3.744391682377313 0.9543487177720985 0.7332195985936655 
1.0139446230765614 6.740336617072408 1.2978717362102383 
2.2452863864980976 7.050919357289431 1.0845898019923603 
5.515583374983688 0.9454089104197897 0.045325991453266275 
2.011364431701822 8.366188017469018 0.09891874883782734 
0.7522436187778934 0.8291727436016525 0.6365939722490515 
-0.7467820875717227 3.657195851218011 0.8972222063677558 
0.006219779881116 5.341183362931872 1.1834243330050689 
1.4908477801624365 8.187643219019579 0.23075643104155422 
1.2507473611453428 1.4657799311383701 1.1053233829318032 
-0.753027116133011 2.6473002202021476 0.5241508340228378 
1.0139446230765614 6.740336617072408 1.2978717362102383 
0.7492949925058164 6.1528423846999765 1.367380804336519 
4.24790136023031 0.21498364158601374 0.17406801237025096 
0.5110824342480693 2.411382388780791 1.234607871764166 
4.755147157405886 5.658828823107459 1.1611663640954548 
4.747907748706614 3.77569817146678 1.5150213195337423 
0.5004864860559737 5.3504290571244475 1.5145301133323328 
1.0040764933175035 7.429382615635743 0.7927531660242599 
-0.4905699033383 1.012567396700978 0.07705191952362814 
3.7468680152516773 5.302679533502087 1.928182655070986 
3.2412426120898794 2.6096145085227294 1.9628387897803217 
0.008182920661237379 6.1211845972693935 0.9016828033252915 
1.7533617731530986 0.14588232303630938 0.12943224882510962 
5.508779258801056 0.9080301105326163 0.03945013282934012 
5.254469892861906 4.183902202416696 1.3315215677769328 
1.0043678318543134 4.548113515700239 2.115914869704447 
0.004101687836051637 5.439057239875428 1.154878713757252 
4.752957037947784 4.070438666267972 1.6202359837007012 
1.7516488039045321 7.305079414324752 0.8823666604029512 
3.010464560750417 8.268231930757981 0.15794010184358595 
0.003800091056124228 0.464944269328753 0.19579994652327173 
1.0048886771242898 2.3515155005857284 1.5498580044820278 
1.7521197528127646 7.030353488819548 1.0906755702238613 
0.2666799801972653 5.620219379503696 1.24538058733574 
1.0151102530599918 8.272579649963513 0.17397579029946109 
4.752807729145954 0.4830921777648997 0.28167258643382426 
6.024165804592792 3.0090581243947803 0.4221016490548097 
-1.2505843808236776 4.065779930496921 0.7251134550536285 
5.746700502464192 4.697611587535889 0.8635365422662221 
4.746223341612036 3.9228793379452718 1.564232513307658 
1.2488333734734298 2.1841014705051114 1.6241753513404562 
-0.2457386297380602 0.8885786833189732 0.1805419932254444 
4.75564595756795 7.794775028338882 0.3635578591272022 
0.005408098760327748 5.93470020676851 0.9689014808464383 
2.7550738012439253 7.119519157410464 1.032196499263055 
3.761167805328451 5.988640737974203 1.6710809368623927 
4.515798691499115 5.108498131304313 1.5227613958767408 
-1.752130770850577 5.539843760297617 0.057233553162379 
0.5123236733252575 2.5022058772552356 1.2726714290323202 
2.51426485743861 3.955064646326572 2.9534410742288877 
5.744068190113982 4.170719673016786 1.0087540370182662 
4.515244540933665 5.819501216013058 1.2566067614507852 
3.2481025373632564 4.283494093354687 2.635718350497888 
6.252299669899126 4.352084440537215 0.6839067273254947 
3.9976872502962313 8.279567310729846 0.16159841116903695 
6.507605855290802 3.632729472374717 0.3376424424989217 
5.0148255001801365 4.088003341807366 1.4640269809159674 
6.510350683420342 5.552160684126037 0.053502246475983915 
1.2628762445437152 8.363225991090719 0.09826855092576402 
2.0067528274666184 5.730594062408444 2.0569109898536646 
6.752014068797569 4.819474365642351 0.15639914459022303 
5.502213123868136 5.658902648235659 0.6668847877904838 
-0.0018322012159004127 4.595562139507907 1.4544966805415938 
1.0028076647464665 2.5012167126692066 1.5866079311852592 
6.4997287552289995 3.7389271301759144 0.37643077756277177 
2.7520776107275124 3.550502814582477 2.653554880489122 
2.255967448153932 7.408624098020779 0.8154794982283459 
-0.24728993843653926 1.8324748544015088 0.5518983831184763 
5.252073378784417 2.839121994679289 0.84478416053575 
2.5145210387344155 4.603431041981675 2.9013620554814605 
5.752217018044615 6.08098811721594 0.3606460122322667 
3.7394293628395703 2.138840015863135 1.5644177704657998 
2.2486779373542407 0.2904906955194756 0.22145888634368976 
1.5022445404973301 6.598669660566256 1.422915466493868 
1.7602400697086045 1.7490551497243212 1.3156285349976222 
0.005408098760327748 5.93470020676851 0.9689014808464383 
2.7600999485055713 3.7659342316421696 2.787661120005371 
5.49863771144466 1.4984864955017159 0.17378105825260398 
-1.987219716317379 3.821760904976302 0.15188495301944463 
-0.7379655905535705 5.911346228051453 0.48832847243641075 
2.0080198080998666 6.603598907742019 1.4195517461761962 
0.2466744315119405 3.897931134685888 1.6212393619498155 
4.7397584110633835 4.986585246063345 1.4011644763819808 
1.0151102530599918 8.272579649963513 0.17397579029946109 
1.0173111859378985 6.988811953225889 1.1264849927119125 
5.754804143757185 6.970291568270936 0.02148142889520722 
-0.9973529721515931 5.759121105007681 0.3820212609953486 
6.503084774558253 2.8065187706324504 0.014343265695555066 
0.7585735208283255 6.1106868963854275 1.3806325351823867 
-0.7412339167965075 4.060785936077298 1.0411362709536316 
-0.24748914840435657 0.25340815980685943 0.029922237294493483 
5.254469892861906 4.183902202416696 1.3315215677769328 
1.0173000522122537 3.6131532329011407 2.009696154061892 
5.272121196989703 6.615842286806646 0.46494541442361725 
-1.0008667389374697 2.7559539446110786 0.3993052249683188 
2.2529230987724547 6.602816385622799 1.4172733133636461 
2.2477053971056518 0.25519273843101836 0.19928773245130843 
-0.49987301611904733 7.717044710504927 0.056043424613769405 
4.00643584285082 8.172478938237115 0.24827963077121643 
6.758481091552677 3.8577467308170856 0.2413752187823912 
2.7576700059552635 6.56923864274182 1.4181108066150427 
2.255177410979041 3.549943081152625 2.652732986048451 
0.2578080882932409 1.2674455817111614 0.650651037026548 
-0.9935599361350288 2.447316454225618 0.2773123557276866 
0.0057480795252973305 2.108740200116301 0.8031929818584381 
0.011394410453546165 6.0001321599695885 0.9386947246488794 
-1.0069932665323036 5.527498883396197 0.46904867192882244 
3.255903848119333 8.391601047179046 0.08084192319564514 
4.496213868307324 7.27819991407673 0.6989675338215785 
5.016134316501333 3.6247979719468826 1.2783519249865714 
2.5000966861244023 8.18844999227817 0.23784508015559214 
2.26405489898837 8.414367329096718 0.05669504353672359 
6.253033034199593 4.215005983971603 0.6937054985659826 
6.4966367764346336 3.3533819408045473 0.22237307109384657 
4.998232002462197 2.058502952967045 0.7090403664424683 
2.5132576535793487 5.270219189965662 2.4007473088883042 
4.255820734473356 6.2654240883596035 1.2423459103117207 
2.998912212884332 6.506218253626631 1.476811492046861 
2.002843516569911 7.759140961621839 0.5439094604498528 
3.2509479170659845 2.1926118349798474 1.6487594369009881 
6.758551579172282 3.2325160106177333 0.022536216675440292 
2.7480865376526245 0.6868134909283651 0.5196589613406567 
2.2452863864980976 7.050919357289431 1.0845898019923603 
-1.245747318260988 4.884804184945084 0.5468710182435245 
3.0002318157130485 3.9666031838826576 2.711693000439 
1.2547988756132344 8.28998313430114 0.1597828148239873 
1.2562453453610607 2.67839355491862 1.8323488495634657 
-0.9908742485115914 6.292409769763655 0.19434311674742763 
-0.9991445548213356 4.969251144261067 0.6742103733462651 
0.74561401691616 4.36303978339941 2.028051104231827 
1.0145846345227787 7.017113773472014 1.1016586403737565 
4.496213868307324 7.27819991407673 0.6989675338215785 
1.5044680571890356 4.164209980332566 2.5400023655983874 
-0.255792894751282 6.960082293424311 0.4310692588278575 
-0.4810986937687401 1.1628916603636492 0.1413091551316471 
-0.753027116133011 2.6473002202021476 0.5241508340228378 
2.0004700589862763 4.5570233647078675 2.7630782063626325 
5.501204731179566 3.05614597970602 0.7485949374552973 
5.0209879404252 3.876899077497105 1.38068707648439 
0.5053863462657929 6.035382309400679 1.2495237811946922 
0.27214678864286246 6.9675110893525405 0.7441541385874861 
5.270415518517822 6.945740237527555 0.35095352059910107 
2.7520237910544942 3.058072813364528 2.299233818178425 
5.504089499837999 3.90161038643696 1.0674025403351677 
2.263535327320281 5.5205623240036115 2.2162143801645007 
4.761510436766118 7.257872836625426 0.5511352315596216 
-0.9942120375078328 4.562226882119489 0.8228850058373259 
-1.9933401148833816 4.031057825689761 0.23641083089919343 
2.7453683122360597 2.995322142393248 2.258300299893399 
2.5116356613301645 8.166667688058796 0.2519185008445509 
1.01199029013775 3.532700090363246 1.9839157837700245 
1.2522950063618399 8.404854929600166 0.07336248131974438 
5.502202978958605 4.274473728619868 1.1805503172029026 
5.247353019653189 4.05631566796066 1.3015103005278332 
-0.7537223606685872 2.2438182169383927 0.35247671550996473 
-0.7412339167965075 4.060785936077298 1.0411362709536316 
5.764692724123256 1.8199043454706174 0.1290251150230419 
4.506202632477603 5.837645550486509 1.2498756209100788 
-1.7398096523333575 3.8983899733106657 0.3348287401794588 
2.011364431701822 8.366188017469018 0.09891874883782734 
2.757496438899937 8.36257168868511 0.0980640687322039 
2.2477053971056518 0.25519273843101836 0.19928773245130843 
1.004775151503655 0.8857862103673992 0.6732189346992828 
3.7573421322578358 5.697277813748792 1.7786139410040032 
4.763195695625314 8.018123211960113 0.26769969240539504 
4.764178588752709 7.583738505325993 0.4308958426146812 
0.2554309402575063 0.14723746565667079 0.12138491325899606 
-1.4895922910598993 3.1852637523093574 0.23485162269107343 
2.749695531484677 1.5432830121183934 1.154816768187364 
-1.2525225127900756 2.9263355555342088 0.296605721447415 
1.756175822178734 4.981177969779001 2.4430873461495386 
1.7589115945825857 5.368632430278268 2.2928683476079064 
3.258363820502138 8.312110392458601 0.15412947150245918 
5.256274679703713 3.726836599320149 1.1661485252257229 
1.7589115945825857 5.368632430278268 2.2928683476079064 
2.5085652370579568 6.581788505150885 1.4198105079784487 
0.2554309402575063 0.14723746565667079 0.12138491325899606 
5.262937888098682 3.753989708624593 1.1848091979817141 
-0.24909104271009896 6.697039381758287 0.5257593751100258 
1.4999250144989966 4.72829674543635 2.3856469690571807 
3.7508271858384767 4.700319990998067 2.1687231076654188 
3.253734087355574 1.0941214055428468 0.8434602863558424 
4.751039654318375 2.629380491776878 1.0924868827167162 
-0.24554593059514862 3.550592697731175 1.1864756593459023 
3.246163015728867 2.995245337165724 2.1867775656106767 
-0.49809589471366067 2.4577647020314255 0.6066700101030423 
4.750795175573968 8.234330553339136 0.1701359034785646 
0.007152934073013683 1.905059803124342 0.737455114762628 
2.0130071285090447 7.961939267388597 0.3949601294202111 
3.7560042925483508 7.419533092443494 0.7998072492472368 
0.9905260104974078 2.7959800060756472 1.6824142062774987 
2.757815404780785 3.196834870046592 2.3978566305867988 
5.511640311317598 5.295938397917855 0.8061868932205201 
5.247188193951581 1.2828876340687092 0.2551156359734706 
3.5156625780074022 8.253268382255392 0.1744147075704519 
2.5077349780157974 6.937328584171532 1.1546132535342317 
2.7583147582613705 4.890815999384857 2.6791188154652175 
1.5046980283378997 5.416262203199063 2.1221154146976446 
2.5000966861244023 8.18844999227817 0.23784508015559214 
0.5090293604356414 2.104714427789445 1.125896970847692 
0.00752447914011781 5.511668694520984 1.126428391473949 
2.0152090197242294 7.774626628818078 0.5358277271182786 
1.0072593948368547 8.19064286759701 0.2262390523330249 
5.9951043858865845 1.795334141274691 0.050455729189162864 
5.757142964415741 6.815105329957567 0.08440320988089496 
2.504138782567862 2.4957196653004576 1.8849288790738654 
0.4975292047534873 3.0324636018383484 1.4708652049261999 
1.4985883985032729 1.895224196580865 1.4299014389503495 
3.255199201989142 1.3202026727045515 0.9997536261072784 
0.7493300209369024 0.6971878838662561 0.5233751140914565 
3.2515051622266116 1.3102743526590301 0.9762586196634796 
2.7583211627953204 8.232182617669634 0.19175690571739548 
0.7492949925058164 6.1528423846999765 1.367380804336519 
0.004101687836051637 5.439057239875428 1.154878713757252 
5.270442089064472 6.013893291513627 0.6861348199935164 
0.7596469172104178 2.3094346470550318 1.3573308676660756 
0.5002889974344928 2.5121909292090763 1.2657218306743225 
3.5112128201411497 4.1822227376108 2.467612830481015 
4.515244540933665 5.819501216013058 1.2566067614507852 
6.024165804592792 3.0090581243947803 0.4221016490548097 
5.254882888851717 6.132146252981786 0.6491229408615857 
4.010228212845021 0.15832458391599302 0.1336084076350509 
-0.24041892826982225 0.7519027298296723 0.14392366331532563 
1.9984198235162813 1.7481190251907897 1.318515406588979 
4.515244540933665 5.819501216013058 1.2566067614507852 
5.270442089064472 6.013893291513627 0.6861348199935164 
6.504852428421634 3.8681176932917083 0.4024754096256118 
4.50149066762161 1.634539324911868 0.8762322143499627 
1.2566648124461164 1.5054388113523247 1.1337334621454485 
2.494990426744589 3.433349109932779 2.5734694787602814 
0.25253651284438333 5.166616334455195 1.4039451175744062 
1.252190530199333 5.636267487284301 1.8796781419942548 
-0.48866795230176613 0.7644530772555872 0.05847161481585294 
2.0025812930318216 1.5865759626358598 1.1995678450130078 
5.248064583905118 2.983142997799833 0.8884967145231824 
4.746223341612036 3.9228793379452718 1.564232513307658 
5.252073378784417 2.839121994679289 0.84478416053575 
4.008505629779802 6.5337155256606705 1.3120883116516207 
1.5039570389321741 1.71129114983425 1.2980143259625938 
-1.247936619640225 3.2442601367538266 0.4281875627935246 
3.743067079820093 4.294955121252204 2.3007199363905233 
2.4977066316556016 4.568167554431588 2.924119599522664 
5.515075146847554 2.8419071661690007 0.6704589910179731 
1.0048886771242898 2.3515155005857284 1.5498580044820278 
5.767066440569583 2.6684420825036446 0.4500545014980477 
1.4932284826420787 5.765395560976671 1.9934865387649852 
2.0016174862658493 2.0776440801751592 1.568404155212283 
6.499964826442409 5.705390315981583 0.07511691097623995 
5.761909089980991 2.861002296506235 0.5214793632603075 
0.7507874521577094 7.088815209197763 1.01017780102454 
5.254800865924677 2.744852899278191 0.7996087585179654 
4.24790136023031 0.21498364158601374 0.17406801237025096 
0.4891593934831967 1.1381951415709584 0.7671078525679957 
0.257263721969315 5.926654292844941 1.1309247712083248 
-1.2505843808236776 4.065779930496921 0.7251134550536285 
-1.49470007626785 2.930379347954887 0.14179647604801277 
1.262728259890366 2.0321235900228216 1.5257280595703557 
6.2557423152805445 5.076544103928435 0.40658517460252713 
7.262829980673634 4.074799590528795 0.08192281472506081 
0.004101687836051637 5.439057239875428 1.154878713757252 
-0.494901543877065 7.008561948967517 0.24604124284456266 
5.011485234732623 0.11162013372895616 0.0484331711435202 
4.259403152609783 6.527704172237143 1.1498159723841572 
-1.254012775290185 3.5718030631363984 0.5325636037821478 
-1.0072633811130125 2.932568152721943 0.46388922243200326 
2.5040160402671447 5.867409349042846 1.9657550552316914 
4.5068000377656645 7.915834224333521 0.4259294836261575 
3.252121476272359 3.1204455658247054 2.2342411231035157 
2.749695531484677 1.5432830121183934 1.154816768187364 
0.7492285438116245 5.900298684440563 1.4640107237416733 
-0.7412339167965075 4.060785936077298 1.0411362709536316 
2.0046967776297633 6.231208093542561 1.6850336805737607 
2.504138782567862 2.4957196653004576 1.8849288790738654 
7.242592888973736 4.415058126241798 0.08226930484896625 
4.2507829804262025 2.457229847317423 1.3325140306207284 
4.259837133010847 0.7557708667902503 0.5755036089827668 
3.007342581618069 1.6127643375355432 1.2083309231025254 
2.994594386870951 2.199975272651337 1.6605695775089833 
1.7593749269771373 7.168492879917545 0.9748533110822428 
-1.2578178080438434 3.479455398550706 0.5093730162300918 
2.5162059474426437 3.738018246304297 2.8132756630753386 
4.24790136023031 0.21498364158601374 0.17406801237025096 
2.992874241035075 5.367225260163112 2.3295342719757497 
6.000254664285451 3.1246980312371844 0.45997767386379096 
6.001538077736141 3.115315592434211 0.45970188809827245 
4.7611798109302805 2.570818791187356 1.056060652323383 
4.260728863218161 2.469092242411129 1.3523350519650237 
2.5008134159844695 1.7203225632885475 1.3029802003281563 
5.003982453990277 2.867317470608241 1.0235808568424625 
2.0080198080998666 6.603598907742019 1.4195517461761962 
3.756226809503457 2.5194883061093445 1.6973640507813408 
3.250530759009628 7.681054879625611 0.6113133284532424 
4.75417427804494 7.150532732680246 0.6023288448476296 
1.5127085760961934 3.5070186681565936 2.2886754324141516 
2.263535327320281 5.5205623240036115 2.2162143801645007 
-1.4970447377796092 3.812287707044852 0.4609704918642653 
1.009402521141266 3.781415270246925 2.0689169069643927 
4.256449813955048 1.184845174206338 0.8547799919517015 
2.002843516569911 7.759140961621839 0.5439094604498528 
-1.2480033910812731 2.8486528483400164 0.2653052334287272 
2.5097538237020363 6.159893821891837 1.7351123903983647 
1.507698068115791 1.9458767096166636 1.452328114950943 
1.2536880271012993 6.988393732413024 1.1186141644212573 
0.5004864860559737 5.3504290571244475 1.5145301133323328 
-1.2505843808236776 4.065779930496921 0.7251134550536285 
1.7598654333180446 2.0264131105160557 1.5254189517313843 
2.0052626894182013 2.343534120846152 1.7628303396245768 
6.5116924889033605 4.854392750834727 0.31210103189379 
2.000017208283936 0.6699054133379281 0.5054518875908423 
3.243939125857697 2.731959420790358 2.044904143935979 
2.2421095313062205 0.20728489627545715 0.16876916398866715 
5.505855753299074 1.649369360979459 0.22979393379893925 
-0.7468785459368882 6.188075345201111 0.3877816960355594 
-1.7538273264807185 4.233705296917936 0.45357610190974323 
-0.253808960353583 4.721129347138911 1.2429425288106157 
1.7555975769596097 2.9065939475221922 2.1845264582327557 
6.4966367764346336 3.3533819408045473 0.22237307109384657 
3.010464560750417 8.268231930757981 0.15794010184358595 
-1.2502024456630891 2.883514420977603 0.28356439767184427 
3.002228445720807 1.3027899744063067 0.9824970162839156 
0.5178147295310662 8.37553924922536 0.0870390087388455 
-1.7412790857454123 5.686009710495578 0.011594240742358323 
0.2632789600934051 6.711601021054352 0.838764937894107 
0.24542306459847907 3.881538100574199 1.6111683351876165 
2.994940329268664 6.1776357397495625 1.716258922582533 
5.509065468534551 2.980992665141331 0.7377396107266673 
-1.4895922910598993 3.1852637523093574 0.23485162269107343 
1.24749510996183 6.283049648217774 1.6316182821185838 
2.5145210387344155 4.603431041981675 2.9013620554814605 
4.257816517757907 5.76292049392108 1.4525354153239358 
0.5085284162654414 5.75465797451966 1.350340321776814 
0.5004864860559737 5.3504290571244475 1.5145301133323328 
0.2516002265144116 3.530159662366584 1.483366455784257 
-0.9973529721515931 5.759121105007681 0.3820212609953486 
2.0122774560727668 8.282151459676333 0.1545622249756452 
4.239970355520789 6.439581256741945 1.1815417659696468 
3.7567072156594072 1.3284721078291937 1.0099864903314437 
5.270442089064472 6.013893291513627 0.6861348199935164 
-1.7412790857454123 5.686009710495578 0.011594240742358323 
-2.002144055312044 3.5849145611795534 0.07005364016865559 
0.5044062629870584 8.152568573456284 0.2534075693071581 
-1.74929584228452 3.8455183631902687 0.32707222206570913 
6.005958233407213 5.284883418158873 0.4991750078133288 
6.272519791810435 5.833243507419425 0.11583070327173195 
4.009064257194466 7.643926236368971 0.6419524543484214 
5.746700502464192 4.697611587535889 0.8635365422662221 
2.7546651059842184 1.3024769547652824 0.9973471585153985 
3.250530759009628 7.681054879625611 0.6113133284532424 
4.998232002462197 2.058502952967045 0.7090403664424683 
-0.0031647941649942846 0.6249659792343129 0.24344864258707044 
-0.49170190514916856 1.095180285963991 0.10369325189184266 
2.5171719394874335 5.132616562562463 2.5176417935507382 
5.515583374983688 0.9454089104197897 0.045325991453266275 
2.260520105437211 5.570255135254809 2.1781808922922097 
0.9984704800323413 6.669535635748484 1.3347985835041305 
4.013954921593726 2.7901519680921028 1.6194845284954276 
6.008637251920156 2.5621914365533387 0.24801698404193243 
6.258218313149814 5.901748380570753 0.09460068370887414 
0.0052719073768699625 0.32741942632952764 0.1388826107748998 
6.006729736106207 3.016551254599594 0.4298425124522313 
-1.4895922910598993 3.1852637523093574 0.23485162269107343 
4.013954921593726 2.7901519680921028 1.6194845284954276 
4.743964045894157 4.066330921210374 1.6207487860959793 
-0.5036236418065589 2.02172989915615 0.4497391390780955 
-1.01153996720984 2.4194578298289655 0.2729649862483397 
3.2509479170659845 2.1926118349798474 1.6487594369009881 
-1.4895922910598993 3.1852637523093574 0.23485162269107343 
1.5083164999352494 7.601611101700389 0.6733519408459167 
3.2515051622266116 1.3102743526590301 0.9762586196634796 
5.506493867564442 6.877865782226833 0.21702797297910412 
-1.2578178080438434 3.479455398550706 0.5093730162300918 
5.5116077664420215 3.0208471432382877 0.7462639099686129 
1.5069498833420323 1.9244055873814467 1.443726192527308 
4.504459473259464 8.39598234483215 0.08345736936162601 
6.005653357460825 6.174129270787464 0.14699325643973524 
4.011668752972971 7.414870451318064 0.8046276726731016 
1.9971641899297787 2.989095154871343 2.2366858762834925 
2.739230668551152 1.81473394593994 1.3647906161320622 
1.2529698429766258 1.534592237042457 1.1606152950665705 
4.752807729145954 0.4830921777648997 0.28167258643382426 
2.756149326615363 1.5619599600762777 1.1758481935289 
0.008836558852868671 2.143089304421116 0.807943295575461 
5.0019722535589946 6.84970232127804 0.551249183114504 
6.991994915606212 3.8827154314932577 0.1041467755972405 
2.0144158591497487 5.34537669866763 2.3454634882595533 
3.2504658489912814 2.0684313037928246 1.550107602524617 
3.2597921075061413 6.800988965897989 1.2609819164834455 
1.2566648124461164 1.5054388113523247 1.1337334621454485 
3.999966096979025 0.3718973676045641 0.2772661822907617 
3.5061159331288816 7.3653992261693775 0.8468726836621155 
5.504686246068203 6.62194118762892 0.31668465205604884 
1.7508721402573098 2.9592102660813144 2.2099582698040923 
1.25618249735016 5.390044064500619 1.9775128197810488 
2.739230668551152 1.81473394593994 1.3647906161320622 
5.0144784565422444 4.961582319039916 1.2457302079027919 
4.257884828815051 6.86952988759021 1.0232549954729573 
5.75232671380397 5.689089485356502 0.4966595801184326 
1.7467068802125987 3.29236350774827 2.3726056963815063 
0.25881195357440506 5.303166643020459 1.356056950688923 
-0.7467820875717227 3.657195851218011 0.8972222063677558 
3.013980898935398 8.458353541647325 0.0450272034550859 
3.763926880227076 6.04004801288242 1.6573496406021686 
1.5174830811512938 7.398719500309645 0.8153033304787997 
4.503325089814065 8.158334675276288 0.25340191661728195 
-0.7445826366495155 3.462579394757666 0.8279561392029328 
4.5071982272160085 3.6217634032097665 1.6150896089848983 
6.006418702961749 4.22400448975815 0.8554220800273924 
3.0016937155160144 1.7424122416587653 1.303339722082914 
-0.4905699033383 1.012567396700978 0.07705191952362814 
6.754057977295918 4.833056092878567 0.1675886890545566 
3.4985000750267785 0.6182216914509744 0.4769593703185139 
1.2522950063618399 8.404854929600166 0.07336248131974438 
4.507020213883445 7.342222777031701 0.6876061594554325 
4.258616781820628 4.591722765074183 1.867875675567999 
5.0144784565422444 4.961582319039916 1.2457302079027919 
-0.4973497477786056 3.5821297264904417 1.032298999439299 
1.0145846345227787 7.017113773472014 1.1016586403737565 
0.7519145723675906 0.6319401862105019 0.4675185636981021 
1.5037482292603352 3.8879757213982544 2.4408209238194383 
5.254882888851717 6.132146252981786 0.6491229408615857 
5.498350983735422 7.2039959965318445 0.08702469171587408 
1.2629789039350319 7.522487220035666 0.7256818775647504 
0.7564194954853934 2.1493454877763534 1.3145822036220691 
2.7546651059842184 1.3024769547652824 0.9973471585153985 
3.0059424135036483 7.405639645844278 0.8226760953053903 
4.496213868307324 7.27819991407673 0.6989675338215785 
6.748438747334337 4.340131455723712 0.35705990219653094 
4.257884828815051 6.86952988759021 1.0232549954729573 
3.2597921075061413 6.800988965897989 1.2609819164834455 
-0.2522390884282199 6.718848248791238 0.5114395307138686 
2.2474047760917264 0.323412898603411 0.2626243981756737 
-0.24802101457908793 1.5710960454818053 0.4341784608258863 
0.5083514974584541 7.072102121422299 0.858893474041503 
2.756149326615363 1.5619599600762777 1.1758481935289 
2.2580405838660056 6.119315003473924 1.7732883824844523 
3.505757046448413 6.166380198915256 1.7388444809725525 
3.7507827853096622 5.939224876994385 1.6891788489909378 
4.2534692714522855 1.8512585373839232 1.1280726306950382 
-0.9902059917935571 3.999824656504568 0.8528675462087933 
4.002217889012783 1.792068378449191 1.2491178666346416 
1.248187838336893 1.7209833323296446 1.2895367194632965 
3.005536217289637 2.292835959481477 1.7231815173652616 
2.508252780960634 6.991871315337987 1.1081029951597618 
-2.002144055312044 3.5849145611795534 0.07005364016865559 
1.243787245667322 2.3346507091360236 1.6945073210423314 
0.5105265697191563 2.5214455629328114 1.272841425087576 
3.0059424135036483 7.405639645844278 0.8226760953053903 
0.4975292047534873 3.0324636018383484 1.4708652049261999 
6.517851513043763 4.801283695585784 0.3354402835949123 
4.751039654318375 2.629380491776878 1.0924868827167162 
3.499972436585092 2.960785404037033 2.0173929395884 
1.2541881158539951 1.000855987939889 0.7678551292242208 
-0.255792894751282 6.960082293424311 0.4310692588278575 
4.750512909932185 7.722084977730323 0.3869958818122728 
2.999039900591931 1.3192709212272975 1.0038906970951527 
5.2521653159299815 0.9453135893053787 0.14400890296251923 
0.9961055749440708 1.8751560438566157 1.3496175466143292 
4.2511067949233 6.515511207215146 1.1591327342610926 
3.2515051622266116 1.3102743526590301 0.9762586196634796 
2.0061655015707385 5.835684961276543 1.9971938277943557 
6.750193511526958 5.120995403461274 0.0712997363472513 
2.7587102770418688 7.688795899000352 0.592776803608221 
4.506202632477603 5.837645550486509 1.2498756209100788 
0.4975292047534873 3.0324636018383484 1.4708652049261999 
0.0029578493935101253 4.7688536866716245 1.4030178619661298 
3.7662774169284443 8.463287282648924 0.02958427433941607 
0.011394410453546165 6.0001321599695885 0.9386947246488794 
3.7660740931194243 6.520675747418812 1.461667084945346 
5.00951165767975 5.258671501230414 1.1396645838694313 
-0.9991445548213356 4.969251144261067 0.6742103733462651 
5.761909089980991 2.861002296506235 0.5214793632603075 
2.7480865376526245 0.6868134909283651 0.5196589613406567 
0.7601296618968107 4.672049472213365 1.9204441833662824 
0.27214678864286246 6.9675110893525405 0.7441541385874861 
5.751588352304536 1.9721211128469212 0.18835945434648282 
6.510350683420342 5.552160684126037 0.053502246475983915 
1.2536880271012993 6.988393732413024 1.1186141644212573 
4.752989295371964 4.81495337549759 1.4627344024560405 
4.504637193518224 3.5926406477439876 1.602939998803905 
0.014464563097419048 0.13819521245092117 0.07845433246523682 
5.254469892861906 4.183902202416696 1.3315215677769328 
3.998070755023044 4.600383326502108 2.0354862534353386 
6.748916229157513 3.076996503489032 0.025690605021419018 
-0.24379218428223326 6.361583017367024 0.6433764438623898 
5.7532223471545745 1.3721206958136734 0.04899263389387472 
3.251585527873151 7.818398618365478 0.5116704542101554 
5.270442089064472 6.013893291513627 0.6861348199935164 
4.511777254427401 2.712090341328298 1.2739568830508543 
-0.24837142724492625 5.703736585575722 0.887526651519352 
2.25768440088239 8.119308482746122 0.28323965053073674 
-0.9945321181001319 5.348853963664969 0.5422587881498573 
-1.7395627181693663 4.005336239500767 0.3794626259176503 
4.242550700407675 2.1317512728906243 1.2269980523218875 
-0.753027116133011 2.6473002202021476 0.5241508340228378 
3.9976872502962313 8.279567310729846 0.16159841116903695 
0.2516002265144116 3.530159662366584 1.483366455784257 
3.5137560707275592 0.2931861063694305 0.22663586032372804 
3.5073010401916704 6.73200266817489 1.3156635006018553 
2.0061655015707385 5.835684961276543 1.9971938277943557 
3.5137560707275592 0.2931861063694305 0.22663586032372804 
5.767066440569583 2.6684420825036446 0.4500545014980477 
2.2615061186843533 4.794230914369887 2.754625613192551 
1.2575569751617361 7.683151156411636 0.6137175171236794 
0.003121991934249107 1.3785385114792832 0.5228982969345052 
0.505347241087169 3.711779612012795 1.7304189944911885 
-1.4975103566316583 3.23024539498222 0.24921890884149628 
3.0044758811171977 0.826276936253285 0.6314616252595756 
6.752014068797569 4.819474365642351 0.15639914459022303 
0.005408098760327748 5.93470020676851 0.9689014808464383 
0.5044062629870584 8.152568573456284 0.2534075693071581 
3.5108807160606847 0.9984045864793426 0.7526214733778415 
6.7653927047812505 5.062561575142808 0.0729975837858468 
-1.7398096523333575 3.8983899733106657 0.3348287401794588 
4.255870713522567 5.191700107855864 1.6516279179225155 
3.2536285489012107 6.83256093800745 1.2267873519576475 
5.260462052697398 5.469063085144897 0.8995815887594152 
5.254325093680091 3.0795420069677824 0.9367878451789295 
1.0035969952638262 7.663950573255216 0.616677293433701 
5.506257183933552 4.25227041414796 1.1905377783618558 
0.7493300209369024 0.6971878838662561 0.5233751140914565 
-0.9991445548213356 4.969251144261067 0.6742103733462651 
2.0025812930318216 1.5865759626358598 1.1995678450130078 
3.7483391300481297 1.7236460274112348 1.2982888228801315 
0.2632789600934051 6.711601021054352 0.838764937894107 
6.507605855290802 3.632729472374717 0.3376424424989217 
2.7453683122360597 2.995322142393248 2.258300299893399 
-0.7471757527419011 5.771486642251233 0.5374331030100947 
-0.7509543177275455 2.6995728606312475 0.5376210896519784 
5.751527106745774 3.948327881832105 0.9346708444788406 
3.0016937155160144 1.7424122416587653 1.303339722082914 
-0.9979205768502822 1.5061554070026846 0.0029010013272292943 
-0.24041549265302617 7.586639154497156 0.1879895928512369 
1.0013739951183527 2.692197576311152 1.6679434290672959 
2.997663513766557 0.191504780501126 0.16082272321593286 
1.7516488039045321 7.305079414324752 0.8823666604029512 
2.246041459745586 6.338734660360956 1.604353261201186 
5.0144784565422444 4.961582319039916 1.2457302079027919 
2.5103609880545585 4.02626940707507 3.0097967887007933 
2.2546050330352356 4.618277895422987 2.880245506836604 
-0.24591117587079359 5.520760532965095 0.9476709998902761 
4.255820734473356 6.2654240883596035 1.2423459103117207 
1.2555295391689485 4.703436237323758 2.2271963379256645 
6.760009091860579 4.926993705828842 0.14157931643065227 
-1.4953513193498582 5.600696925888268 0.1181831821508279 
4.497501687795838 0.3545992208251039 0.2867334105955941 
2.0045140679226603 4.796125385771049 2.6786008839221864 
-0.9979205768502822 1.5061554070026846 0.0029010013272292943 
3.50845495538504 4.94239570183804 2.2307828731463353 
3.5022812687227374 3.637801985947489 2.2712386944211933 
3.0016937155160144 1.7424122416587653 1.303339722082914 
-1.2479925547957471 4.903467421290556 0.548484454952905 
6.25136060380151 4.738604473807713 0.5228720259076232 
0.500293645933446 6.2764105355945965 1.1530355678005195 
2.2546050330352356 4.618277895422987 2.880245506836604 
4.7397584110633835 4.986585246063345 1.4011644763819808 
7.0095228985870905 4.269643869763595 0.20329571443334593 
2.0006985980303345 4.032914763779232 2.8105972087099547 
-0.9978124260490504 2.0111067189397573 0.12467576299174583 
2.7583147582613705 4.890815999384857 2.6791188154652175 
-0.7522550985398293 3.1977310982949154 0.7202810021764736 
1.0013739951183527 2.692197576311152 1.6679434290672959 
0.5037477303575711 2.5196140990322697 1.2836520880335713 
-1.4954028613952568 2.699125193737308 0.05479903230834661 
0.9961055749440708 1.8751560438566157 1.3496175466143292 
1.7598654333180446 2.0264131105160557 1.5254189517313843 
3.009890233021073 3.376747562163606 2.4867762673260594 
0.008182920661237379 6.1211845972693935 0.9016828033252915 
4.004461042842759 2.303837160607602 1.4394423754788441 
2.0122774560727668 8.282151459676333 0.1545622249756452 
4.004461042842759 2.303837160607602 1.4394423754788441 
-0.7522550985398293 3.1977310982949154 0.7202810021764736 
3.5073010401916704 6.73200266817489 1.3156635006018553 
5.254800865924677 2.744852899278191 0.7996087585179654 
2.0022889854261465 4.146010338255504 2.846696127173546 
4.764178588752709 7.583738505325993 0.4308958426146812 
3.7629539073759677 2.430303351320464 1.6552722203283798 
2.0002433612974984 3.0208615482424386 2.271932984436637 
2.2596213270029413 0.018050603537405906 0.03145478910412742 
0.9984704800323413 6.669535635748484 1.3347985835041305 
5.761909089980991 2.861002296506235 0.5214793632603075 
0.7589239438814206 6.263547505193009 1.319005156777611 
4.997246892496664 1.4930754147952203 0.4896168130404657 
2.755073243851776 6.4734581731359775 1.5135031565762391 
0.003121991934249107 1.3785385114792832 0.5228982969345052 
0.007152934073013683 1.905059803124342 0.737455114762628 
6.503036309443738 4.895209159888496 0.30479944700661915 
2.002843516569911 7.759140961621839 0.5439094604498528 
2.7453683122360597 2.995322142393248 2.258300299893399 
3.256555924821264 7.094467216147211 1.039796798200831 
0.5083514974584541 7.072102121422299 0.858893474041503 
0.008836558852868671 2.143089304421116 0.807943295575461 
1.0028076647464665 2.5012167126692066 1.5866079311852592 
-0.24428727723593308 4.900959525140846 1.1873155812929093 
-0.7529833505938758 4.738639970342336 0.9222315384817572 
-7.45083346746279e-05 6.885381453193597 0.6219034143383246 
3.0011963278162614 0.5182101566529305 0.39511536300227584 
5.752217018044615 6.08098811721594 0.3606460122322667 
4.5110711826302365 1.2092945041943328 0.7108778231038265 
0.4891593934831967 1.1381951415709584 0.7671078525679957 
1.755815811048093 6.648418342025983 1.3869195526156164 
0.007456395120580478 6.765547944597819 0.6658278450618749 
6.2562438710161485 5.61415284363183 0.20568302778205594 
3.2501632921212806 0.46087485801731215 0.3613835947162949 
2.5019852285017357 8.382214865825203 0.08405014696829627 
3.7458248388748827 2.0255185795437574 1.4990462335662622 
-0.24582422332385634 7.406246050511835 0.26342940917447694 
0.5083125651298412 1.7957189699857259 1.0163184152607867 
4.752701363942647 4.910542252517659 1.4317527646914383 
2.2437226063701705 1.2468395928648381 0.9510070913840015 
6.492661788002756 3.5060618647843893 0.28867783587101975 
2.999039900591931 1.3192709212272975 1.0038906970951527 
6.241522847937833 2.9346183842109137 0.22381638895918385 
6.000254664285451 3.1246980312371844 0.45997767386379096 
5.003401521575089 6.609114843804313 0.6400201451815807 
5.262050892066333 1.8584652419693675 0.46478707106364553 
-0.7404624620102963 1.5919145385679858 0.12664716667442016 
2.756469869045376 5.6621931043610365 2.1139387732292163 
1.5021328732313568 7.561746037658476 0.7037714093985332 
5.75920699054903 3.7236364998476716 0.8513355165938067 
7.008571917964538 3.4386280047908016 0.010986776553276678 
0.5083514974584541 7.072102121422299 0.858893474041503 
2.754848830240119 0.4345504929031349 0.3241923336975456 
-1.0073291666970494 4.907673750630333 0.7099312611764743 
0.25857360825506526 1.043900910904123 0.5642921017750179 
0.9989654750781528 5.4975892541996725 1.7677391516510728 
3.2424766318683163 1.2110718249165389 0.9084502780187251 
5.000815370511632 2.5766535535548543 0.9024668954705708 
5.515075146847554 2.8419071661690007 0.6704589910179731 
6.260525834572705 2.9729206719855994 0.24161374359567211 
1.2535577076358217 3.31137081513303 2.0520393616277928 
0.25151751127002325 0.4600467264494657 0.32926747425778186 
0.24453829184610232 3.376703338160236 1.4363328184676998 
1.5087171920728928 5.0412036937239195 2.274065147065598 
4.7599882509907205 3.8737083568928248 1.544037251598815 
5.000815370511632 2.5766535535548543 0.9024668954705708 
1.0012091701075352 6.917974918629263 1.1764538402035352 
4.506202632477603 5.837645550486509 1.2498756209100788 
-1.7474106510933198 4.582537267697839 0.3394483274742466 
6.498199471336202 4.499128466970317 0.4645056452315665 
3.0070345277075736 3.5325044695499526 2.537443473121181 
3.008795607771168 6.1682677682305185 1.7434428173686423 
2.007622438778466 7.106307577095094 1.0366303372907928 
5.751235688895068 3.2143930565080803 0.6684841116207446 
2.757496438899937 8.36257168868511 0.0980640687322039 
4.750512909932185 7.722084977730323 0.3869958818122728 
-0.004768164446556572 2.750884575662424 1.0179766232629768 
3.252121476272359 3.1204455658247054 2.2342411231035157 
3.2542052829222046 3.4295357609440633 2.343514501497955 
-0.000781468222701154 5.5777668892347645 1.09696285118624 
2.2560909358973458 0.11558224834864338 0.10317878505078097 
1.4974746953307776 0.31622129731651766 0.25547357934979703 
4.7509516915622525 5.78688619492252 1.1108420244748283 
1.763392499633373 5.15091099626819 2.392389158099182 
4.754410707348653 6.323070885829267 0.9062722513665707 
1.7516488039045321 7.305079414324752 0.8823666604029512 
0.25072913977998557 5.400577979579186 1.3230732429920928 
4.009064257194466 7.643926236368971 0.6419524543484214 
1.2563100713464683 2.6025712998550286 1.7919390811747733 
2.752042677140745 2.8655606213426443 2.136885280288193 
3.0026005502984927 7.508692272124382 0.73356779557892 
4.503325089814065 8.158334675276288 0.25340191661728195 
4.248746540877072 1.423064343422999 0.9556472266654982 
5.757766635584988 4.424705103542121 0.9678047139662546 
