8.007975146846452 3.4226662246143422 0.576880739170119 
7.751203274336034 2.569896769915895 0.7349181073725356 
4.501004559276394 5.334628606601566 0.08494892811407834 
3.9994722237843185 0.01901959661321278 0.2701031784852505 
6.49635952613096 2.643733870591671 1.2347627941930726 
2.0045089409107986 5.1542940812807005 1.1665935112699573 
6.997008028841214 5.447830995046929 1.1993131376381312 
8.256436265444268 2.072842584001559 0.42227486271649217 
0.24831165900907115 0.7811382190203394 0.1518637433873906 
2.2531771539927052 1.5168243587518417 1.2860021931434031 
2.5146199170921335 2.1791511082016313 1.131905590767119 
4.757704203602531 4.556215424159606 0.16983731286916032 
6.254642952953547 2.9186007148648017 1.0928928681635293 
7.498221100048074 0.4773954246460757 0.8947187941885807 
2.9983679348494467 1.3938095666008827 0.8410241869873792 
4.50519788619964 2.8990797686391327 0.015789609274085098 
0.5025551144033528 4.0165843116411155 0.2872187040569855 
6.509631348092536 1.4667664250612764 1.2413557787640694 
6.499579604677606 3.847499386295852 1.2396768961808764 
8.484904370874336 4.467094185233392 0.280961283421687 
4.505748004255961 0.7361998897532129 0.09119167549304756 
1.7663590319742164 4.969091458611418 1.003579432669501 
8.004915351024085 3.8986485839456084 0.5762236690920968 
5.496837940042947 0.48506406057012624 0.624914379305529 
0.7396549478218466 3.105252034598166 0.41236294978330845 
2.0108026171869238 3.5831298878921025 1.1524660329555332 
6.760071213059554 3.829368739253602 1.3580297566181496 
8.254014337038663 3.1295546819198523 0.4172279906537201 
5.000978527988044 3.342967398905101 0.31544297286667594 
7.247980464996963 0.5858825540168533 1.0430143817231523 
6.26590922012444 2.9372579178264506 1.0910052062535012 
7.496938351207158 3.19561406339575 0.8869574241067136 
7.745252044036049 3.3957979245377605 0.7217843426279686 
0.24606434872090088 2.912780113408326 0.13762839066615318 
6.255646229248053 5.233154969308746 1.082791200871733 
1.7630179270773685 2.882614031248858 1.0054866705467138 
4.7551809579116995 5.138289200110947 0.17248676584106012 
5.257375494787953 0.12392767888169436 0.47836504339278024 
1.7571689328677862 4.338217841333066 0.9993582151553031 
6.507061547639057 3.2362238825061995 1.2362943927970664 
6.017050641450344 2.448713367153469 0.9475944215682178 
0.7553666906112102 3.7065934923525634 0.43308096369330007 
7.259700841304445 3.7761315450692554 1.033082727305896 
2.996020813308493 4.235309968954576 0.8430785248592021 
0.2560244691775492 2.2016424312298124 0.14253402479878172 
7.498221100048074 0.4773954246460757 0.8947187941885807 
8.009753522907449 2.645286453001994 0.5847412309056119 
8.754865984708562 4.153294214197389 0.11352842320839904 
1.9998847626674638 1.7336569356558995 1.1338469968551228 
5.994920657598346 3.1685711761088347 0.9252738667422266 
4.520916592333805 3.011559340267149 0.025667881174280885 
2.004276267066068 2.299952111187474 1.1557996582705636 
6.747779897484377 0.910625270158808 1.3686952452245087 
4.261364074539828 1.41164106402148 0.12542677277887632 
4.520916592333805 3.011559340267149 0.025667881174280885 
8.75103824733821 0.8942769568125559 0.11641679678646942 
0.24661673433100728 1.7332593360778081 0.13118881702401336 
7.757797087964879 0.7242096849729922 0.73955681833124 
6.007493418983541 4.112376961985348 0.9355379619215641 
4.755501945394798 0.8408675509548285 0.17046865473664516 
0.5043111936373018 4.566302100062235 0.27660164427841955 
7.006268464186538 3.793149145144536 1.196046754892426 
3.244858330696644 4.014165166253926 0.70221445424829 
2.996573850175809 0.24375689374510318 0.8387566490840462 
2.74900058464078 2.11429692156788 0.9759574713723099 
4.247595993632334 1.3378659487780087 0.12327689228962944 
6.757008506323391 3.838783532442369 1.3706410385657402 
6.999556237337439 3.88638573964568 1.1848684665875326 
0.509708747844302 4.074469770752622 0.28510277466840395 
7.752475824026446 3.994526251737391 0.7321567770328771 
3.2573711788819457 4.856070178448447 0.6947702035363851 
8.010503433756787 2.539791155653414 0.5737442520279369 
4.762036874695474 2.5664533638678564 0.17093285821831855 
6.761549393542949 4.739154581455261 1.3684717121246048 
4.008446900988809 0.04184185104624504 0.2601884132201311 
2.5086249568325694 0.34597015044477997 1.136085489786871 
6.0079634995996125 4.773858799055912 0.9433825604225405 
3.7642018897918845 0.7273020848167957 0.4113935379282177 
4.005485886688693 2.733693643273631 0.26731453608079664 
0.5091102422239259 1.0600496735676632 0.2773893676063131 
6.010749002618846 1.914982524404388 0.9468431038533702 
2.020042299764971 4.1135747385334485 1.1512544278994097 
5.754130906166866 1.8894818570101122 0.7813522540879888 
2.75277632277681 0.43231760361082294 0.9748112211661502 
5.504624135156584 3.2693959230988856 0.6270801520511254 
1.7631576879222364 5.035761840304504 1.015080655279449 
1.503685397603581 1.0570014757129174 0.8613100828322158 
6.760923886314585 0.5921796287352171 1.368433566446954 
0.5015870549750311 3.922396752328747 0.28527037349006096 
5.496837940042947 0.48506406057012624 0.624914379305529 
0.25972068403952636 3.668140457094619 0.14398236873605297 
7.498221100048074 0.4773954246460757 0.8947187941885807 
7.256600211416356 4.199879575694513 1.0324006185480472 
1.5103358475810305 3.7885299190908426 0.8656288175702528 
0.500122974065709 2.868874120013071 0.2871035817957896 
7.755400148175384 4.864459097670054 0.7298277840437175 
1.999467166185803 4.491979269154357 1.142102570246717 
4.244233976357594 4.139768673433261 0.1188753237148665 
6.260326549587873 5.001479534180257 1.1012106408645215 
4.5125096570419885 2.280346563732095 0.08380116691187944 
6.493230869337936 0.8416676253743084 1.2269268038790841 
1.005309971191503 0.15809074339623846 0.5721453594320344 
6.254642952953547 2.9186007148648017 1.0928928681635293 
1.2528806113681863 3.2238165319965906 0.7216925185001208 
2.2549451759509003 1.3898138514418512 1.293913216141477 
4.0073635079534675 5.4465965319167795 0.2532575966769395 
4.012073217849751 3.3957193638602345 0.2644820925959723 
0.7472060112064314 2.1937716330750465 0.4259629682875762 
0.7456039083085162 4.414776930119969 0.4223542224081904 
0.002274939435266471 3.539731348782225 0.06060613270359694 
8.75766789104927 1.4200399789896208 0.11972821091732269 
6.505742985938887 3.0181861223950506 1.2390305834831206 
3.9994722237843185 0.01901959661321278 0.2701031784852505 
6.999297763546193 1.3469885300012736 1.1953582666350002 
1.0166567850712802 2.2692011322540693 0.5712588145858397 
3.5148979802519795 2.525774222521756 0.5538732691931798 
0.2452363490109487 0.9497633069023718 0.13414484853069664 
8.248400851346684 1.5589018387170326 0.42335870114577173 
2.0045444647562665 1.6943519726519973 1.1546111056118302 
4.747063418453885 5.474542088282828 0.16345101691115999 
0.9990562977371523 2.528532093725218 0.5794345989805799 
2.006975407446852 1.1930956614504524 1.1364547083755991 
5.258459886031413 4.725179725758495 0.4827026407116115 
0.7396549478218466 3.105252034598166 0.41236294978330845 
6.507394828333548 0.36372188515168713 1.2409936048532653 
5.756669736175456 4.945968629187331 0.7748763580669082 
3.749886942155143 2.71882091911536 0.4107876637295558 
5.755474140286248 2.5508387360772846 0.7742811721436236 
6.998434878429351 0.5658368797771274 1.190052100376551 
0.7650237173859791 4.5269311387099345 0.4383158164658866 
7.750198449249815 1.8669937276904438 0.7333549401443221 
0.007151765517842877 3.974243644496839 0.061770634378571256 
4.5125096570419885 2.280346563732095 0.08380116691187944 
7.010371851749752 4.48642466715887 1.1916318588066732 
2.7563532267886663 2.871387469363546 0.9816773760686074 
2.5064425139994047 2.763760253944522 1.1228368296631395 
3.003257147819955 0.2804072202078748 0.8516840068208239 
1.7547635450504617 2.0147892501389824 1.000209773711634 
3.249799682487566 4.794855451696009 0.6941436476573047 
6.500144684828978 0.5017679486327183 1.2342125721881783 
4.248650243871642 4.709477079344567 0.12078808042923168 
6.997149738501137 0.7509003459030399 1.196646257220354 
3.2573711788819457 4.856070178448447 0.6947702035363851 
2.253196893281574 2.950438702652831 1.2809675240956704 
5.252238874297457 5.474018605118104 0.473321133833664 
7.518612554804944 2.779689174932434 0.8846900687944798 
3.5027618611612352 0.5261102593782281 0.557176032026804 
7.757078978741676 5.095230340959247 0.7287462797202827 
2.2636330578260786 5.142099291967539 1.2865007461809341 
6.492515415791291 2.732140475190499 1.2379389947288695 
3.260375024355462 0.06550519799350907 0.6957003701676135 
4.993237738253974 0.314003541892895 0.3117539223435174 
7.505268698581561 4.9235153788903645 0.8923486545207293 
0.2501101817551731 3.718871566739181 0.13013732482694193 
6.005703747398674 2.6979094057415995 0.9258085099522289 
8.757593087249125 0.6394423150408186 0.10618862596050622 
6.256839960959964 0.8651655913401765 1.0934177733563322 
5.501809512847738 0.5848785587093196 0.6276119505450063 
2.5004294928606585 2.136761927726607 1.1275516437692938 
7.502887851198999 3.2318535981685126 0.879519090206829 
7.762323150446526 5.000063355108856 0.7317227936086486 
1.997040256475223 1.7298477062850104 1.136901301322725 
7.259492168807061 3.1934036803214165 1.0275590623228643 
5.505474301271991 0.09079926162472285 0.6280411524516478 
2.500784608316724 2.1823584004996035 1.124637490073129 
3.256737375918031 5.128448978452027 0.6939424674299163 
4.497729227895203 4.137804044552906 0.013584332940324304 
1.7477745616550484 3.862596675649383 1.017311774875062 
5.761349086764012 2.5962524621127185 0.7878224427920139 
0.24858954030085137 4.27093735711951 0.1382740467758678 
7.757236656031873 3.3268715005770306 0.7443785186465436 
5.00197384497794 3.2744274766070394 0.3195296772392729 
8.260539033073515 5.306767718610609 0.4219120631600166 
7.513055493708927 1.8593574758618583 0.885496000217653 
3.745037456758876 3.42777083104116 0.4030273588640622 
1.252702507549854 3.82011791487322 0.7169282891449222 
8.494142464006174 0.10673250531516328 0.2766339122970614 
8.012276429585482 3.865847652705966 0.5797183766071587 
8.498710786527699 3.1137275636037898 0.27714412293885976 
7.997501663035027 1.5934074664536464 0.5900085358731464 
0.7456039083085162 4.414776930119969 0.4223542224081904 
2.011661060914717 4.572594125423157 1.1562745343748917 
4.2443993376862235 3.5137817627268997 0.12779545455853406 
4.762036874695474 2.5664533638678564 0.17093285821831855 
5.259081304821649 3.40487669514293 0.47206270656394245 
7.752475824026446 3.994526251737391 0.7321567770328771 
7.495438588386383 3.910745606472907 0.8894333750388731 
7.244941946092802 4.173171772456021 1.0368446385732153 
6.24523974680025 0.338997257334142 1.0914680830047814 
1.0048717397523006 4.375162021925265 0.5651370764314303 
3.247081851257011 0.6090428546537302 0.6902166396068415 
2.26420316341075 4.960523649044316 1.288522644195565 
6.505742985938887 3.0181861223950506 1.2390305834831206 
4.006692887819746 1.5864363548178122 0.2740131267330402 
5.248501517887641 5.157779397322416 0.4704377513924506 
8.754218847043365 4.1102138861017945 0.11604555425303699 
7.265208425550064 2.733983943451724 1.0313053261915588 
8.005288318520073 3.5248120872717266 0.5857586844106095 
4.245880552915965 1.4507673279667097 0.13896877366156843 
5.752491910585808 0.22203119070947583 0.7727535348612684 
7.509525121049137 1.397929438246909 0.8836676344830372 
2.5146199170921335 2.1791511082016313 1.131905590767119 
1.260584767982958 3.422690269999498 0.7228563233847917 
3.7642018897918845 0.7273020848167957 0.4113935379282177 
5.759468972176478 1.0766965117709075 0.7822205461335169 
0.24675662311677254 1.250524488341933 0.13333575914123183 
0.5040395336557817 0.2128398517184066 0.28050047314693266 
0.7506084127051695 1.6875751633326044 0.424202356691052 
3.2580321960562815 1.4094693473729556 0.7013465281680394 
6.242435154117081 5.050255252027951 1.0923568472347944 
6.007493418983541 4.112376961985348 0.9355379619215641 
8.017595105418383 3.6555672966488144 0.5741542026376613 
3.2370034694283523 2.5898361987357337 0.7032333774175124 
1.4974549112702256 0.8259277393376824 0.8608166427640762 
2.5198815489707775 5.429719507855779 1.122795730266489 
8.51290368229795 3.6870569160996802 0.26833130694020857 
0.013164203872700873 4.975272068023781 0.0773138785514392 
2.258997636414904 1.0258685006151202 1.2896637865350904 
1.9913942923943004 0.1064096580440032 1.1320511282965762 
2.500784608316724 2.1823584004996035 1.124637490073129 
2.256907761191671 1.0262697228392874 1.2839336507131058 
0.2613340138231301 2.7921253355360647 0.1516182678122146 
1.9913942923943004 0.1064096580440032 1.1320511282965762 
6.7597523560648325 3.0213755055108757 1.3657902631980967 
3.0041320896592656 3.403634062653018 0.835877691464138 
6.512045290932324 2.7707331882737747 1.2370929105413457 
8.5032567218653 2.4343927351855275 0.26497506411576005 
4.998748343136553 0.2122688384712198 0.32020907952722094 
2.4974951638451657 5.095979141261411 1.124591189087738 
2.5004294928606585 2.136761927726607 1.1275516437692938 
0.494233529164048 3.1104315780810956 0.28570254471672957 
3.7499781078291967 1.3021362062684014 0.4045733195242738 
2.0028189283196793 3.23414023615435 1.150512281752776 
7.008902705631432 4.534220936357417 1.1874941825865728 
2.9916268524367093 2.2204394119112103 0.8492247915463598 
2.2470975563005813 4.790363072230701 1.2811979796838078 
5.998177825058701 5.118737642964616 0.9391420013742655 
8.74745949012726 4.6845853677133915 0.11735642441019378 
0.9999200425688759 2.4011398444483496 0.5677712448007686 
7.76022605042478 2.794902092338539 0.7360170774587103 
8.508135214902747 3.192308791694928 0.2835909473163447 
1.2562235754833433 5.39825076681644 0.716653977488867 
7.001127811720944 4.006920115347367 1.1876785463574326 
3.998591427591894 0.5276076631815153 0.2631608645275075 
8.249438402356747 0.6968563486484486 0.41971921314356875 
5.7547703927468286 2.9853850267432382 0.7714299423407968 
2.252046837282201 4.178960513158789 1.2803036303507311 
6.000100534803945 1.0163974924847416 0.9249481042427133 
2.258997636414904 1.0258685006151202 1.2896637865350904 
1.7663590319742164 4.969091458611418 1.003579432669501 
3.506498570087521 3.5692698658824535 0.5531763549787548 
1.005309971191503 0.15809074339623846 0.5721453594320344 
1.2528806113681863 3.2238165319965906 0.7216925185001208 
8.014919960379608 2.211238638305511 0.5715218529100696 
4.495653839711431 0.6663845846307819 0.08133782520837336 
1.5051984981444295 5.378353673606282 0.8558717752717788 
0.9982393962202453 2.819516096015404 0.582852061296145 
0.9856807021710995 1.7545631745399262 0.5782967956621489 
2.233838886735093 0.5077038450652913 1.2846684589752435 
5.5118102923982 3.0965784333627435 0.631462267378443 
4.761595971496152 4.123223110906974 0.1776881802139689 
1.2538255787639758 1.217673364097709 0.7125147676526714 
3.5028644583097672 4.295321177106348 0.5544097692745982 
1.4988854860981664 2.7001182971884283 0.8555978143446429 
3.249799682487566 4.794855451696009 0.6941436476573047 
4.008931972453518 0.8478988054930953 0.2746625694772035 
7.013353806424127 4.739747007915446 1.186196066495865 
4.495653839711431 0.6663845846307819 0.08133782520837336 
7.761201032924266 1.6097171375847747 0.7227418443681883 
6.745933409610443 3.1590387923142242 1.3573568177867532 
7.755400148175384 4.864459097670054 0.7298277840437175 
4.251996536954751 1.214559961346907 0.12462787116997101 
5.248501517887641 5.157779397322416 0.4704377513924506 
0.504180008329106 1.8340144159447864 0.28577931095678405 
6.753478322130254 1.5462016718681608 1.366584533085551 
5.758404446949826 2.6493497953735607 0.7750583130294126 
1.0047403461618385 3.0218317091392404 0.5726310815526724 
4.258744097834956 4.703475620253858 0.12517976092757155 
6.758132039567646 0.513531699469095 1.3692957390175757 
4.2636581330869205 2.6309137413093926 0.12089106442022796 
2.5026520843309337 1.7688028171055015 1.1312700304567316 
7.249071876897664 0.14099261985234837 1.0312792172742924 
6.5107566375783605 0.9014417805157744 1.2324922211215334 
8.752722488327262 4.4066960911515975 0.12325161710570101 
0.2466515950200836 2.4857770114474222 0.1419192922536654 
6.255441560481217 4.751708077108596 1.0822443615058468 
7.754244300878652 0.4014146157587695 0.7291860022702035 
4.506375364197545 2.0822335840383976 0.021519919596699914 
0.7520057767397633 5.332036813083337 0.42702730738991623 
0.7423310019621709 4.070437058840137 0.4140427197758819 
3.26980577287842 5.381416924879521 0.6861716173887614 
0.5011511692976744 2.006728394162444 0.2918155937593856 
5.505101268663018 4.227348414339194 0.6296543595020457 
8.247295700527268 4.638989595143479 0.4245307176369229 
7.988401010266561 5.336890729980854 0.5693521147819065 
3.9903303006164688 4.224732257395424 0.2609579637803321 
2.5026760332631404 3.9500416699757688 1.1353202144059953 
6.757294926030593 0.08559424890967073 1.3649744003487856 
6.260741265336322 2.8174254747977585 1.0921355349641009 
5.7549559828495305 2.5184106947736056 0.7853146140419299 
6.509320873491792 3.4944036315553344 1.2477128105800754 
1.739659851039473 3.0754859232422285 1.0017554796054353 
7.505142465078798 1.4848161118861607 0.885105258157238 
5.746985353112604 5.027876671312666 0.7799602680620398 
0.24661673433100728 1.7332593360778081 0.13118881702401336 
1.5051984981444295 5.378353673606282 0.8558717752717788 
3.996187552889401 0.9369648672482536 0.2680225175793402 
4.253516689241341 2.002287332883831 0.12593025586367 
8.000953309448136 5.375415589110214 0.5900646859354246 
2.251856743753066 0.36401753871435705 1.287744993729403 
6.24792547850228 4.922200144020529 1.087556646733796 
3.256490099794809 2.02560818708942 0.6877142926788439 
6.2500546733310705 2.342497702418034 1.0888445614921127 
8.752722488327262 4.4066960911515975 0.12325161710570101 
6.513329217872389 3.1718314836901036 1.2522790757815545 
7.992379489223229 3.881463361383763 0.5863809834988892 
0.5038142362243304 2.5642444575274785 0.29369418826401705 
0.5031558169374513 2.5018514409814365 0.29461187389852006 
0.2554222074632171 2.8218459615257414 0.14824804227007582 
3.261505554532301 0.9244389310794606 0.7014316478404586 
0.7634029260493054 5.3633177209517235 0.42735765032683154 
6.498497690007645 5.270854445600828 1.236031220592334 
8.26316383288772 5.3572250704077184 0.42005318852541534 
1.7535485294053796 1.6726131401917577 0.9978975093777713 
0.5090586937892138 4.704588916903016 0.29245716642473313 
4.2536269529665445 1.2832287578384263 0.12925324888677833 
4.507362356441807 0.5990571891627168 0.018868801855872096 
4.001262061036177 3.252826867769585 0.26948590365941827 
2.7583570345868558 3.0629778069429836 0.9905840683693815 
7.510242750414595 2.461317346498384 0.8703274740277698 
6.49635952613096 2.643733870591671 1.2347627941930726 
7.761196965653431 3.8352775795861263 0.7258776826602996 
7.2466378513301954 4.623749075672706 1.0383328350834888 
7.502666823404428 0.2804370104287137 0.8946828978159002 
2.7447679371303337 2.0388482553250262 0.9865057157828482 
5.511033533679142 5.094855885371374 0.6344553798029219 
3.9957509033995597 5.128973536094728 0.2635969707290688 
6.50786339774849 3.29567942934931 1.239495088764201 
8.004670401982121 2.3178195451736263 0.581740939572092 
1.2531681141530013 2.7799857215221793 0.7254719142080114 
0.7518836205085365 1.6949685519316113 0.43485970103541544 
1.0048717397523006 4.375162021925265 0.5651370764314303 
4.495653839711431 0.6663845846307819 0.08133782520837336 
1.2490349971565977 4.528893151456645 0.7129685337958713 
2.9916268524367093 2.2204394119112103 0.8492247915463598 
8.507687330905368 4.250123153262811 0.2663084641162147 
5.759624286795049 0.26786309369123457 0.7764086813573989 
7.002975890412298 0.2804886905901514 1.188172162038369 
8.51290368229795 3.6870569160996802 0.26833130694020857 
7.244941946092802 4.173171772456021 1.0368446385732153 
8.004915351024085 3.8986485839456084 0.5762236690920968 
6.245784830096786 0.18186260508111274 1.0861224674031251 
8.508135214902747 3.192308791694928 0.2835909473163447 
2.249233265412449 4.47100343167416 1.2846525125161132 
2.497865517367191 0.7905472345065008 1.1280486993300707 
2.0058332030499457 4.404459364257022 1.1608437707632435 
0.49766118646951535 2.113248218933132 0.2681671379375953 
6.010695423199552 1.3357656613552247 0.9354864031901562 
2.503552420572174 3.43057200591587 1.1318195464047576 
1.7566800223989647 2.936080690010191 1.0025392096913341 
2.5004294928606585 2.136761927726607 1.1275516437692938 
8.014843727076794 3.3581678095762477 0.5815419370593004 
0.5164474537025 4.773347126022453 0.2840134957418736 
8.252213794904241 2.3464024503206957 0.4333936005249174 
6.997543558880744 4.258465528134266 1.1892903012975358 
0.24858954030085137 4.27093735711951 0.1382740467758678 
3.5027618611612352 0.5261102593782281 0.557176032026804 
1.7519604046753252 0.2351082293128985 1.0109238939178697 
1.7577246589657984 1.8754251244829454 1.0039332230789295 
5.251621012358004 4.641350923106361 0.4813462598659269 
7.999929532602485 1.6424851844352473 0.5722955207244178 
1.5033900141626637 3.763116667117699 0.8650263200589708 
5.252187103575224 1.508187675231918 0.47869385827990385 
1.001426548964932 2.932339329190376 0.5648955618949728 
2.2457213118257506 5.088044299869747 1.2925169005324257 
1.9913942923943004 0.1064096580440032 1.1320511282965762 
8.003022642899502 5.403203367180328 0.5761248141408972 
0.24884414692955753 3.7561780096285045 0.13103902649271265 
1.999467166185803 4.491979269154357 1.142102570246717 
3.4939178454649644 1.1166940497775037 0.5597722439631881 
5.506811288603681 0.901286910811249 0.6378312060371548 
6.509818247979935 2.543482620248144 1.2404830084376104 
8.754865984708562 4.153294214197389 0.11352842320839904 
7.999115961184612 5.185350882283814 0.5762857622262717 
6.757294926030593 0.08559424890967073 1.3649744003487856 
3.2610595062673826 4.450588500691117 0.6918291218571748 
2.7581264843376174 0.8533309896960622 0.9822126242691306 
6.757008506323391 3.838783532442369 1.3706410385657402 
6.252750750409629 4.017285566515445 1.0953562972277953 
5.00904575856913 5.140338554991728 0.3138113916197235 
2.7467560899209222 2.162755319924661 1.0003549320865806 
5.007378476381092 4.590523599971045 0.3244191975605671 
2.7493116755700195 2.2207613012756897 0.9829383803713028 
7.242499165845547 5.392182202590901 1.0477477469604284 
3.2538866357323366 0.5808174170380416 0.6937145070327558 
8.508166226668239 4.401377461590707 0.27847823141740335 
1.0006131842348476 3.273081057819631 0.5760202808005183 
2.756591710925175 3.3028280676133037 0.9973745160811748 
3.502916430446547 1.87525468029922 0.5645322699517902 
4.265953447847885 2.801917821759533 0.12729439041846222 
6.510666396473876 5.445394364005529 1.2531307116295476 
0.7649861882780217 2.6753855295769102 0.4268308430098674 
0.25280477410169316 4.425997124859105 0.136436661190367 
5.994920657598346 3.1685711761088347 0.9252738667422266 
6.260774548476159 4.204118919850391 1.0834142238273805 
8.749941502513167 5.260043283295483 0.11474202848481081 
8.497116685838058 5.096290630620874 0.27297537237935116 
3.507233687427998 0.20755517861179962 0.5546959635089985 
3.749886942155143 2.71882091911536 0.4107876637295558 
8.498623413489906 0.25758730599917595 0.2879106954312017 
4.755069616318646 3.6299596302132557 0.16871754582371967 
0.5062964704599573 0.5765492556874046 0.28027442031078753 
3.5005010687640192 1.8204614799476204 0.5536561322481125 
3.758480307371394 3.612285144407777 0.4136037143369153 
0.5091102422239259 1.0600496735676632 0.2773893676063131 
1.5103358475810305 3.7885299190908426 0.8656288175702528 
2.500784608316724 2.1823584004996035 1.124637490073129 
0.7539308653401621 3.9825282287914483 0.42540816525885455 
3.757433554031622 4.611985579583926 0.4139414196638518 
1.2468475588746084 0.2557682750763991 0.7204221202304029 
7.008902705631432 4.534220936357417 1.1874941825865728 
5.746605734819596 2.5816268812884418 0.7713791439996293 
1.5109261715025717 1.7609755548003532 0.8593586938994996 
7.756329865319353 4.155317367866222 0.7267171877665258 
8.009482715518851 1.656480154446368 0.5809179523724075 
8.750484168866377 3.111489499511481 0.12758191346104586 
2.5120774940659443 4.990675665300422 1.1281075774134919 
5.513821474823006 4.379846676649101 0.6385547778819459 
3.2459406896459346 4.928360220290535 0.70034294074287 
1.502015777267278 0.5143212224058641 0.8583930503454649 
3.4956022704163487 0.8515768414173044 0.5461259993857944 
0.49766118646951535 2.113248218933132 0.2681671379375953 
1.997040256475223 1.7298477062850104 1.136901301322725 
0.2505995724787356 4.1106287114646385 0.14581765987480294 
5.259552810649654 4.198071462890958 0.4861704118372931 
5.251307806906422 4.32345789215891 0.4865389607503684 
3.506498570087521 3.5692698658824535 0.5531763549787548 
5.2628294400357705 4.423611384870618 0.478306665116338 
0.25865572458297664 2.3880042960328787 0.12972294499195208 
0.9974963898302862 1.3125133955357453 0.5721735809267143 
5.508482645655588 0.1531296251586806 0.623751769229429 
0.5016112622498089 3.5329914919176537 0.29296180664814175 
8.255727837387724 5.403027882004865 0.4171269350071119 
0.25182262783324727 5.109407521898185 0.12097401255748041 
1.5082896206103913 3.3294294353343235 0.8586821998522804 
7.999115961184612 5.185350882283814 0.5762857622262717 
7.001127068130411 0.8104511765213828 1.196313257396946 
7.753421208194028 2.3787389338943212 0.7277205271985403 
2.9998048258020837 2.2973184468771906 0.8464386153951534 
6.011373933163631 1.8566703772849427 0.9306459440093442 
7.745252044036049 3.3957979245377605 0.7217843426279686 
1.2554063476049708 2.184856917344588 0.7227347143240146 
7.259700841304445 3.7761315450692554 1.033082727305896 
4.999637627175973 1.562380641959606 0.308286775465844 
2.996020813308493 4.235309968954576 0.8430785248592021 
6.994243026078927 4.580585045669474 1.1905820390074706 
0.7650237173859791 4.5269311387099345 0.4383158164658866 
3.9999533221151844 0.8858384281632252 0.26632666743739936 
1.754962944188045 4.5166909273874865 1.0013241597766225 
4.004605433008627 3.6583389792496215 0.2748363193233808 
7.509189065111383 0.9496660182325849 0.890803256994084 
8.498689830758174 2.5664622220273854 0.2784732026617221 
2.4974951638451657 5.095979141261411 1.124591189087738 
1.999467166185803 4.491979269154357 1.142102570246717 
5.5118102923982 3.0965784333627435 0.631462267378443 
2.0057615913043363 4.300404577721217 1.1518492322422254 
7.751761169509895 3.259303081437196 0.7325624286148211 
1.7444462017721134 5.405019816725296 1.0012215822587909 
4.9948850933131475 2.0130732311989226 0.3293654160017868 
3.9999533221151844 0.8858384281632252 0.26632666743739936 
2.2492571403541453 3.6977345010469476 1.2837957211187108 
8.258105215191165 5.363880376872076 0.4295412577358474 
8.014843727076794 3.3581678095762477 0.5815419370593004 
5.75667058543125 3.1126997172953574 0.7846577992899488 
2.5004294928606585 2.136761927726607 1.1275516437692938 
0.5025551144033528 4.0165843116411155 0.2872187040569855 
4.259994930278781 4.100399035778711 0.11272347015443758 
1.0117840320232248 4.125710116769054 0.5721260369120368 
4.0057512686449686 4.482879898062561 0.2637282685628861 
6.499874589542894 3.221677685844807 1.2403755800168133 
0.2501101817551731 3.718871566739181 0.13013732482694193 
3.5098095446577156 0.8356531781740936 0.5697250229317118 
6.512045290932324 2.7707331882737747 1.2370929105413457 
0.9966399779384885 1.5552125459503692 0.5713660133878695 
2.253593443246787 4.424873299121855 1.2728147744531817 
8.004915351024085 3.8986485839456084 0.5762236690920968 
4.001262061036177 3.252826867769585 0.26948590365941827 
4.9948850933131475 2.0130732311989226 0.3293654160017868 
3.748961753495613 3.2836759257735912 0.41553809945836767 
5.495752121466867 0.030341798911852496 0.6225971907601175 
4.0045841219593425 4.472110756075087 0.26986865718509984 
5.998294306284995 0.08877335596163441 0.9319879112147276 
3.748961753495613 3.2836759257735912 0.41553809945836767 
0.7553100285585569 0.2959835035480532 0.429127916924506 
3.7566173795809217 1.4403976963255636 0.41806968184110727 
5.758404446949826 2.6493497953735607 0.7750583130294126 
3.5098095446577156 0.8356531781740936 0.5697250229317118 
8.748567872144843 1.2944598311294044 0.11161054206333543 
2.0024641880713117 5.40469906067092 1.1491368474826564 
0.7596577413995759 1.1231442008950328 0.4389625235924317 
1.5009079705462303 4.991877322267887 0.8645167946591132 
8.497116685838058 5.096290630620874 0.27297537237935116 
5.501809512847738 0.5848785587093196 0.6276119505450063 
0.25546982399007273 2.0814771595063823 0.13632538006384026 
0.5016112622498089 3.5329914919176537 0.29296180664814175 
7.502810360551082 3.856557646534492 0.8817597233921487 
5.755507226737211 2.164575699634031 0.7811524586869932 
8.74225353751649 0.331560255383774 0.1270480890396835 
7.750247508172177 1.7145470829953524 0.7354495388734589 
3.0201964890016093 2.495355850455033 0.831885499684381 
4.251321251715714 4.338183124042723 0.11869556165068088 
1.5009079705462303 4.991877322267887 0.8645167946591132 
1.0166567850712802 2.2692011322540693 0.5712588145858397 
5.508102506397108 2.75061275876638 0.6236080797823523 
7.506802340787872 5.419460691019632 0.8898500424185524 
7.995753785480096 1.605972575848934 0.5716144526599778 
4.999683543697856 5.358547745247241 0.32835769977327317 
2.7514807536300077 2.470938798030284 0.9792781068489066 
2.011661060914717 4.572594125423157 1.1562745343748917 
7.507970378418921 5.113663809926002 0.8942137979390111 
2.0059715933972155 3.5205947674194498 1.1545796808677824 
7.015004743618221 2.6097509333351145 1.1876956653943818 
2.742679145997674 5.417813282774359 0.9933820255149565 
7.749857871574687 4.496367550823661 0.7234967238615976 
3.2573711788819457 4.856070178448447 0.6947702035363851 
7.765986916769682 4.87699981898947 0.7186311006507451 
4.006206284979658 4.924437290370461 0.26693506553561247 
3.7528785617828895 1.9587109153132651 0.41151122873156504 
2.75277632277681 0.43231760361082294 0.9748112211661502 
1.4976670187105385 0.880218895865295 0.8479586784666946 
3.245617144837749 4.221348234692604 0.6927360533787471 
2.501437547482172 2.569686603226854 1.1331618223673885 
8.003304395230998 4.422109349518806 0.5896250181898968 
4.506340665221058 4.500201512129335 0.09171009228794305 
8.498710786527699 3.1137275636037898 0.27714412293885976 
3.756345845491022 4.5435630980075175 0.40483433315476164 
4.5051968420691315 4.392034443267493 0.015455441805243605 
2.7624644479084677 0.9115794985403772 0.9792949894880985 
2.9994508170108336 0.8832632872768422 0.8485050658801013 
6.249883450625576 0.32577422149538265 1.083749235216388 
5.262856168216676 0.42928983376342555 0.48447080096959344 
4.253186657837371 1.568104433749586 0.1261450238074419 
2.0065996490753943 2.4411734942700964 1.1540151035195105 
2.510993891292142 2.66565574186713 1.1357828997724837 
0.4960568498138821 3.9144035678752083 0.28877659160928526 
6.2502480265847815 1.1994419055531325 1.0968159442817498 
6.003319628562128 4.202986730903792 0.9279966856554169 
3.2604856373878723 4.544967012643669 0.6970594755486015 
8.255727837387724 5.403027882004865 0.4171269350071119 
4.258635061931835 0.6134644433600536 0.11999452456795327 
7.2521996681046375 4.810911016712856 1.0388082432613457 
7.763142568120251 3.35495729614892 0.7308480753141322 
6.4935901818989405 4.376839170669513 1.2418052411479588 
3.2610595062673826 4.450588500691117 0.6918291218571748 
0.500122974065709 2.868874120013071 0.2871035817957896 
2.251856743753066 0.36401753871435705 1.287744993729403 
0.008575871831626242 0.5473591635282186 0.06404099303433328 
8.752802847838078 1.7676529125732032 0.1287691770441536 
2.009805783850459 2.542507104866319 1.1480186024130214 
0.509708747844302 4.074469770752622 0.28510277466840395 
2.008410292408461 4.972784280049095 1.169316059343695 
4.7425934116937105 2.923094830150252 0.17056302385127275 
3.0012218204337637 0.1476108783451467 0.8467205274402578 
7.757236656031873 3.3268715005770306 0.7443785186465436 
3.002774928532119 1.0682989460005685 0.8440689017846983 
5.746985353112604 5.027876671312666 0.7799602680620398 
5.245149088678662 0.5912162107952024 0.4762399128620675 
2.7514807536300077 2.470938798030284 0.9792781068489066 
0.5073515367709508 3.6060992232265963 0.28905505022246203 
1.0012724808407414 2.0534052095799002 0.5627677462253177 
3.505813034633419 1.914953400084746 0.5536349540667793 
1.2537822959883995 2.6945964458975666 0.7203808342937204 
8.004879999886063 4.099313383393794 0.5890897846890328 
3.2523213389323598 1.9949043659311225 0.7006981591095477 
0.7539308653401621 3.9825282287914483 0.42540816525885455 
6.010695423199552 1.3357656613552247 0.9354864031901562 
0.504180008329106 1.8340144159447864 0.28577931095678405 
2.2483347992778233 4.704713057939351 1.2878968832414608 
4.754543581255116 4.075004996718418 0.167766545788014 
1.9992588625362442 3.603483217318846 1.1459196706627246 
1.7535485294053796 1.6726131401917577 0.9978975093777713 
2.7547833883661723 0.41032917361460586 0.9827945863632731 
6.999556237337439 3.88638573964568 1.1848684665875326 
0.2613340138231301 2.7921253355360647 0.1516182678122146 
8.75103824733821 0.8942769568125559 0.11641679678646942 
7.2521996681046375 4.810911016712856 1.0388082432613457 
5.244645740888708 1.1700129923818046 0.4768623512297409 
3.998856769274045 4.014216985344575 0.27465149619958173 
0.7649861882780217 2.6753855295769102 0.4268308430098674 
7.49377383126004 1.7982967596915236 0.8807191479804518 
2.2631159166474477 1.2853528965843561 1.2742705828316239 
3.2581241491151554 0.7146672501395156 0.6963324206437711 
6.999297763546193 1.3469885300012736 1.1953582666350002 
3.505813034633419 1.914953400084746 0.5536349540667793 
8.501690238986615 2.8410459655022424 0.27275043716760095 
1.0006131842348476 3.273081057819631 0.5760202808005183 
4.245880552915965 1.4507673279667097 0.13896877366156843 
7.758351961493451 3.1529843906766675 0.7400922260855712 
1.2537822959883995 2.6945964458975666 0.7203808342937204 
5.7595115173140385 4.015098113412234 0.7866731155960243 
0.7553539972947662 0.5302632246508276 0.4368480720295612 
1.502322464960495 4.397244020985318 0.862228372076955 
5.754130906166866 1.8894818570101122 0.7813522540879888 
8.762131109318144 1.0923085700586277 0.12420978101281278 
8.008386139030126 1.212535427864121 0.5803801230279427 
0.5087907801415256 4.264417894479009 0.28554273705632727 
4.494608959104112 0.01426860148948331 0.09153721068388646 
1.5033900141626637 3.763116667117699 0.8650263200589708 
4.506340665221058 4.500201512129335 0.09171009228794305 
7.01070362132522 2.83422040570816 1.1960347185874214 
1.2466142833367713 1.013242083368723 0.7177669423676306 
6.994243026078927 4.580585045669474 1.1905820390074706 
2.5044048912573422 3.742162478468839 1.1326279623325142 
2.9983679348494467 1.3938095666008827 0.8410241869873792 
2.009805783850459 2.542507104866319 1.1480186024130214 
2.0123728804547327 4.423104914123404 1.1506523781355646 
8.26097970772561 2.214392235883832 0.4355930084267331 
3.7545831356477133 1.6993786564007511 0.4128643846892495 
3.0079656684304448 4.8206203410782065 0.8412717296973068 
1.2473950963448475 0.8594808185349513 0.7070413640150925 
1.2488036108655116 0.8903453247776019 0.7182616662857654 
2.502014782446697 4.4607457636137715 1.1312554855445347 
5.00904575856913 5.140338554991728 0.3138113916197235 
7.007819378794899 1.8253376162194042 1.1813410871879375 
3.0006967237879123 4.69034670728521 0.8384675223819668 
0.2478127329788798 4.208826671593334 0.14606315660249553 
6.749805775649835 5.089371660807998 1.359698757176379 
4.501993956834564 2.685160447078971 0.02352902472670644 
6.261844349488182 3.5301733370032786 1.0827822995546519 
0.5067355810090196 2.7428543832509225 0.287770885565852 
8.746012926530716 3.691284444914324 0.11911709381343447 
2.9916268524367093 2.2204394119112103 0.8492247915463598 
7.507970378418921 5.113663809926002 0.8942137979390111 
2.754787787116214 3.265318051351269 0.9981564004391885 
3.249595477071185 3.317589272877333 0.7001963997666668 
0.7456185141945421 1.9907880886883087 0.4249174312071238 
5.496837940042947 0.48506406057012624 0.624914379305529 
5.512386407226885 2.595408333315814 0.6345873632123642 
6.499579604677606 3.847499386295852 1.2396768961808764 
0.24858954030085137 4.27093735711951 0.1382740467758678 
2.0058332030499457 4.404459364257022 1.1608437707632435 
2.0123728804547327 4.423104914123404 1.1506523781355646 
0.9964853900719008 5.28842169486595 0.5694500972973909 
7.008902705631432 4.534220936357417 1.1874941825865728 
0.25865572458297664 2.3880042960328787 0.12972294499195208 
7.002932017730228 1.3472909211520148 1.2022151386068836 
8.511339337448902 4.857291958339389 0.26503998417131847 
7.264512713241861 2.7976905407683765 1.0298586277604456 
4.245880552915965 1.4507673279667097 0.13896877366156843 
5.7536057524788315 2.776732111285064 0.7916589484901757 
6.510666396473876 5.445394364005529 1.2531307116295476 
0.2466515950200836 2.4857770114474222 0.1419192922536654 
4.754674105486763 4.586934710091264 0.18378923739126377 
6.005373885896239 1.5928445675191436 0.9339276526470461 
7.513055493708927 1.8593574758618583 0.885496000217653 
7.754244300878652 0.4014146157587695 0.7291860022702035 
7.244683930899596 1.196067086127688 1.0479341281733048 
0.5088938073457911 2.0900667013840706 0.2814047180553142 
0.25771869507367573 2.897827940320742 0.13223636092951008 
4.99531242213499 3.457121243822983 0.316418738135478 
2.4998447025237263 4.631984324083371 1.1349727854621514 
1.250878616764014 4.330177226125135 0.7172933836527163 
7.260895577468518 0.809156308025235 1.034168605163244 
2.510993891292142 2.66565574186713 1.1357828997724837 
6.9930640173612435 2.6170714527048853 1.1916241764285862 
2.7493622388605434 2.7555018326218206 0.9763214102428748 
7.244683930899596 1.196067086127688 1.0479341281733048 
6.006076462305099 1.653043448031277 0.9289096070873104 
4.754916040796849 1.9368627872995967 0.1737804606071686 
4.501037796617435 1.658660280690529 0.016388486895195096 
5.747465438309661 4.981705024920752 0.7817993030267277 
2.755268551321265 3.9045927141051067 0.9924566174925046 
4.742930099177712 3.1733775714873373 0.1750594245979236 
7.504463482458816 3.357040109283586 0.8785585383217209 
4.260180910213924 2.0384216018382486 0.12390936826052051 
2.249233265412449 4.47100343167416 1.2846525125161132 
6.753751935823381 1.73670930372145 1.3633943206417216 
5.754823785926007 1.5521430817278725 0.7741934252674341 
8.253288638315462 0.6843417591477226 0.4332276349496197 
3.2484957650736663 0.4584362188672358 0.6973538652274407 
2.755268551321265 3.9045927141051067 0.9924566174925046 
0.7483813165400736 3.801858579452277 0.4268315882592421 
6.247220905456837 2.45560090814696 1.0844814076248115 
1.001533857606846 5.222554084947271 0.5682261254635914 
2.506965251221351 1.257578318341313 1.142370659482627 
5.004900389599113 0.42992533527697746 0.3238297220859776 
2.2522299419862613 4.130824847751557 1.2788721209871328 
2.265953363845886 4.804620195496272 1.280731711846688 
2.252518171073416 4.778991521598033 1.2834518773460843 
2.2527354522428826 1.9317060921031723 1.2785381099898767 
8.000915433708354 2.956314287012837 0.5828502023335118 
7.992379489223229 3.881463361383763 0.5863809834988892 
-0.002271450383556149 5.414574800534833 0.07721622942440683 
4.0073635079534675 5.4465965319167795 0.2532575966769395 
6.262606176855996 3.380567265668204 1.0940297025820087 
7.00289382327917 4.213746226188997 1.184963574103681 
1.754962944188045 4.5166909273874865 1.0013241597766225 
8.25268476743448 1.4478577675700415 0.4355090418393532 
5.248501517887641 5.157779397322416 0.4704377513924506 
1.2473950963448475 0.8594808185349513 0.7070413640150925 
4.5051968420691315 4.392034443267493 0.015455441805243605 
8.25268476743448 1.4478577675700415 0.4355090418393532 
2.503552420572174 3.43057200591587 1.1318195464047576 
5.512386407226885 2.595408333315814 0.6345873632123642 
4.494608959104112 0.01426860148948331 0.09153721068388646 
3.758480307371394 3.612285144407777 0.4136037143369153 
1.2462740649381785 2.879435972747864 0.7045727728461227 
2.5026520843309337 1.7688028171055015 1.1312700304567316 
7.509525121049137 1.397929438246909 0.8836676344830372 
0.7583521463009119 3.412927921342529 0.4329465978248884 
0.9964853900719008 5.28842169486595 0.5694500972973909 
1.2537334848959172 5.404002849380632 0.7052508704629561 
6.760972509185817 4.197540655546295 1.3735216074728496 
5.248817648353131 5.38505726316829 0.48136626409270644 
3.750498723671842 2.0616877573076855 0.4129474983511263 
8.511339337448902 4.857291958339389 0.26503998417131847 
2.251856743753066 0.36401753871435705 1.287744993729403 
7.999929532602485 1.6424851844352473 0.5722955207244178 
2.4961697044484574 3.6254960061280244 1.1353922112389119 
4.251531634726479 4.578697042566734 0.1301044756873346 
7.7545045363896765 3.148519063523535 0.7395613203898432 
7.762323150446526 5.000063355108856 0.7317227936086486 
8.248400851346684 1.5589018387170326 0.42335870114577173 
4.754674105486763 4.586934710091264 0.18378923739126377 
3.512318352584191 2.2467889349484493 0.5517646251273295 
0.7553539972947662 0.5302632246508276 0.4368480720295612 
6.508518303296368 4.655452032253029 1.2546427013265102 
8.250048297368407 1.1631011350316613 0.43461926216417307 
5.251621012358004 4.641350923106361 0.4813462598659269 
4.5079329993838835 3.0683709701016575 0.012503882785070572 
4.748437944672937 2.1117821530251084 0.16236904450366388 
8.498623413489906 0.25758730599917595 0.2879106954312017 
6.254181321750869 3.5651960223711763 1.083886934947408 
1.5052341305372081 5.338820364495682 0.8643955000830249 
6.75589369077029 5.2154100510460015 1.3578608146838878 
6.507394828333548 0.36372188515168713 1.2409936048532653 
3.256490099794809 2.02560818708942 0.6877142926788439 
4.008931972453518 0.8478988054930953 0.2746625694772035 
3.2562333194967863 5.209044272647764 0.6905965606740563 
1.0022286575449961 2.16434661012007 0.566291377925256 
3.010245334539928 0.6668690524256585 0.8492653774402041 
7.016235168402458 4.401173753869302 1.1926761586233454 
2.256223757765668 0.9940119355446878 1.2827136161387231 
6.756136421579663 3.6149849638152403 1.3532197686962713 
4.018247117110003 5.107816748392679 0.26722055269214195 
6.254642952953547 2.9186007148648017 1.0928928681635293 
2.74900058464078 2.11429692156788 0.9759574713723099 
6.494241137243678 2.0836559834680393 1.2344963775178317 
7.509525121049137 1.397929438246909 0.8836676344830372 
8.499342784607867 5.22055676603264 0.2704554589272121 
4.75223375009937 4.09600072799397 0.16086332177166954 
8.508649598917222 5.155032715130588 0.2709709015605659 
2.013542019420565 1.0976307762447337 1.1562393641178141 
7.761924846420682 4.674707575338468 0.7232492576603433 
0.5016112622498089 3.5329914919176537 0.29296180664814175 
1.2578156602339226 1.6803268312593465 0.7239584341760169 
1.5082896206103913 3.3294294353343235 0.8586821998522804 
3.5055187368923617 4.202777303951046 0.55869978150728 
7.002328289187924 2.513181393432954 1.1982016233884847 
4.012719617089674 4.686374666956565 0.25876875651273673 
2.747430468342 0.4793700057343132 0.9988641121935703 
7.254928756432123 2.353906507469716 1.0387221560929794 
4.253516689241341 2.002287332883831 0.12593025586367 
4.767818439601535 3.672921525849061 0.16650941287961468 
2.513302508701235 1.2426473311353206 1.1279873365561386 
7.256600211416356 4.199879575694513 1.0324006185480472 
7.2623180892423305 4.068212937506051 1.0424953381936592 
0.25972068403952636 3.668140457094619 0.14398236873605297 
0.25280477410169316 4.425997124859105 0.136436661190367 
2.7504790589835264 4.003505728552761 0.9940695755348368 
2.5063601941930016 3.9338064643927906 1.129268115533718 
8.750484168866377 3.111489499511481 0.12758191346104586 
5.002458663096779 5.109429415333784 0.3242731993530628 
7.500322191376304 0.4637970422347485 0.8905190776586338 
7.250954410545241 3.7352141251866757 1.0399485350671107 
4.507433414171269 2.3464787489775087 0.016206652325725022 
6.505119322347602 4.926967772552796 1.2303827565386551 
7.756329865319353 4.155317367866222 0.7267171877665258 
7.997547807856964 2.0979221780152937 0.5740249004842638 
5.2504625664684905 1.5264333252927245 0.47416976225468116 
0.9921113449888429 3.090855398271502 0.5658877173566499 
1.001533857606846 5.222554084947271 0.5682261254635914 
7.001959948379671 3.8073979826571964 1.189024488936854 
5.504825333008043 3.215782603841225 0.6212260578884892 
8.24713151623265 3.2037286434175845 0.4192343382953995 
7.757797087964879 0.7242096849729922 0.73955681833124 
0.2478127329788798 4.208826671593334 0.14606315660249553 
2.759679730474727 0.3920611562130016 0.9831722328004697 
5.006624325761662 0.823693865773046 0.31921837260915 
0.9982393962202453 2.819516096015404 0.582852061296145 
8.753894310605862 2.2436355444717555 0.11720722043283464 
6.50586238834909 4.393921640867148 1.2354414851898032 
5.007378476381092 4.590523599971045 0.3244191975605671 
6.763644175178909 4.12258982995742 1.3653648397482023 
8.265989109693573 4.541241240350626 0.42003445349205676 
3.256378169182738 3.7705005311947777 0.7043020257801574 
5.753507706173019 2.580671457897267 0.7781517072962725 
5.003487704772728 3.33210634451739 0.31536629767506885 
5.2571845820580965 2.888394491438585 0.47671186506243934 
6.999393159000963 3.805394080002954 1.1880612482287896 
6.50349488099792 0.27752691290616566 1.2376110957323356 
0.9974963898302862 1.3125133955357453 0.5721735809267143 
0.5043111936373018 4.566302100062235 0.27660164427841955 
3.251813732781075 4.031825510507342 0.6946031188354682 
0.7583521463009119 3.412927921342529 0.4329465978248884 
3.2370034694283523 2.5898361987357337 0.7032333774175124 
2.506965251221351 1.257578318341313 1.142370659482627 
1.0054929382827504 4.444089035256805 0.5719665967454691 
8.764427398699855 3.1263561774204325 0.12201296324006479 
4.505254215269785 3.2375207110667468 0.0015129212223083006 
5.993051697141979 2.1597374909098046 0.9260327295236762 
6.249883450625576 0.32577422149538265 1.083749235216388 
1.2549096528140984 4.998114593780548 0.7181055637141477 
4.248650243871642 4.709477079344567 0.12078808042923168 
1.0054621476736294 2.02574036580333 0.5767671486087051 
4.247595993632334 1.3378659487780087 0.12327689228962944 
7.999728335599021 1.5712554472316411 0.5838801202733829 
7.755691690215873 3.5212547788996686 0.7295931308201647 
4.506375364197545 2.0822335840383976 0.021519919596699914 
7.014131989815814 2.6659348158015748 1.1887509117364088 
0.5043111936373018 4.566302100062235 0.27660164427841955 
0.24990979898384735 1.0970080332190384 0.1407967318792068 
5.009153797559596 2.7459936501298006 0.32652542306162746 
5.765072572913432 2.4390853548056497 0.7869989097650214 
2.754421717258078 4.596896511455907 0.9868148466259998 
1.999467166185803 4.491979269154357 1.142102570246717 
0.5044440531331835 0.9644834505641082 0.293625289892494 
7.006739728650505 4.204486110572379 1.1939901556993955 
2.519749401152868 5.033256022585139 1.126759138988587 
3.498190637589864 1.03866504918657 0.5580944572255522 
2.747430468342 0.4793700057343132 0.9988641121935703 
5.248501517887641 5.157779397322416 0.4704377513924506 
2.0064182998705893 4.504219081425553 1.157658413515539 
6.254181321750869 3.5651960223711763 1.083886934947408 
2.5105467978174794 4.250244587009749 1.1246137377954497 
6.999393159000963 3.805394080002954 1.1880612482287896 
0.007151765517842877 3.974243644496839 0.061770634378571256 
7.489161073370105 0.7453145820998647 0.9000011032226742 
6.255427588321299 0.12231632094205466 1.0782715756127919 
7.5016010338826 1.0372539579182958 0.8957739373791163 
8.50691607174029 1.0413591220899887 0.27405513420160726 
3.0195837090488507 3.491172172018111 0.8457145905469927 
6.5050489007814045 2.388043316383491 1.2497972341430352 
