6.005247109665967 4.3944903198898775 0.9345115054565293 
5.758645829769849 3.8984441832457297 0.938792667285122 
3.7449738777117116 5.024433546763319 0.4663600866977441 
3.249518116240755 5.435629557153749 0.0863356862596291 
7.00377605588551 4.553524526744581 0.9375465778724329 
8.010570084358744 0.6399966788811098 0.5664344446823226 
8.498629347088611 1.3926343276904773 0.26893038883574444 
0.24548084773064544 2.1433155072218333 0.14791359885496422 
6.010387635068568 3.8730817728964118 0.9420758333023241 
1.9959596663709094 4.256815978229063 0.933989768978606 
8.747204163527657 2.9605580055494753 0.12059916451342961 
6.509334033019864 2.6321822553092358 0.932147433894487 
3.002754609986393 1.062641900613717 0.9306777582191182 
0.2445663669474696 1.3076696574199123 0.165022437517441 
1.2487430515847486 2.4276237454499343 0.7636695969318548 
3.2620982169457404 4.8187996815981355 0.6774383704291183 
8.001502179377201 5.3019585614002995 0.19238048698652901 
6.497378030430287 3.7891764630419345 0.9570820973359527 
8.248593009490603 5.272861232461563 0.24381960054744115 
8.49159050127846 5.112919206670338 0.2715764842917125 
3.4986131781427865 0.9528732690410434 0.8642658992108389 
4.012916249888504 5.3477473233878605 0.17024808349707843 
6.001754193627546 3.2973153452818518 0.9409304425442366 
2.751944553471744 5.443990670693266 0.13810566200476898 
7.761787955406417 2.0179149720628518 0.7231720122109279 
6.244744090237137 1.3723934582783717 0.9342239069774334 
2.5056504304413716 0.1703371562111766 0.11504820083993744 
4.5112959566364 2.8998909906600487 0.9358136491924434 
3.505896172177633 5.104671030706139 0.39065922003156145 
4.763438094535935 2.5197309060608393 0.9482167331273068 
2.2543778094657956 5.204590984391382 0.30677675422567485 
0.7586043767752257 4.358161807335214 0.46327464953302544 
3.0093944757385893 0.7000371966355006 0.6230047310543553 
6.753397073117915 1.9275896241223178 0.9457506133112762 
5.244859691698987 4.411597309918399 0.9283707832539962 
4.249425201177224 5.248073273018375 0.2685385823949389 
7.507094612981998 0.1388101870651101 0.08845298003281808 
8.503955976114774 3.6969272578621246 0.27336281620647923 
4.987306976858604 2.8630563358637886 0.9367057002090261 
0.7621799365298219 4.879519813014987 0.47182536777302386 
0.756232379187212 1.5731586155949218 0.46210361318374665 
2.749647499133089 4.274806604273081 0.9382937498461671 
5.255537435232115 0.8323143515587952 0.750222947950637 
4.748216172153068 0.39781091781172406 0.33728523418789513 
5.26465009049791 4.683064368537447 0.8617275324525874 
8.258377364208815 1.6388116648592224 0.43840116945890373 
2.0107721346057223 2.3862220400136054 0.9286591134720679 
0.4990691762614968 2.650612851982304 0.3072610782296013 
2.4979362776300245 1.1258764650244077 0.9386292695205749 
5.50363195340473 4.422834019430297 0.9313811160582859 
5.7589238326551735 1.568286570459588 0.9447966749126576 
4.260077085180655 2.2890298557968456 0.93714679539532 
7.507625907272868 4.846626623538567 0.6428493429470074 
5.995702758810497 1.5468598574530446 0.9427345056659735 
4.249329957043461 4.949830821941746 0.5516348090127456 
8.744002775473582 1.417357315510917 0.11819397578594827 
5.752533734445113 3.870036935562541 0.9437440355444526 
3.496268516555719 5.118185484716566 0.385156095733881 
2.0022601985042074 0.8611547092304483 0.7765741959318151 
3.2536365722708953 1.486517536712961 0.9284662191167553 
5.503522901743535 4.4269708213670595 0.9423336786283427 
0.7427526431919307 3.856375482204273 0.4588433078024111 
3.2581200202587572 4.221446427668787 0.9325727968122817 
6.7462023969294025 2.8400552457174286 0.9382439195695956 
4.254372311476047 0.2569669582867622 0.20352474797652018 
4.25666332278176 5.016017310872367 0.4854207000557498 
1.0052428363905483 0.6418428071868816 0.5855384831696221 
4.007460499251017 5.50663501453021 0.08364411854232809 
8.263680867609965 3.3706924571829218 0.41962147100450026 
1.9992328891500077 3.6900507217963026 0.9396241905489944 
2.0011102617365895 0.9722722698147023 0.9462652397215312 
1.506307121755774 1.5578763622078975 0.9347720351319968 
8.49988339840119 1.6865111913793809 0.2639636956198392 
5.011261438589591 5.109056831530589 0.40411972661257783 
6.5045547577942395 1.8385162002725826 0.9309713981448069 
0.501030735171778 0.7142023222207549 0.3107089025683461 
5.2534301092388445 4.9373399352238225 0.5670055347310717 
3.0058380035076455 1.41436693420273 0.9456616279875946 
7.507094612981998 0.1388101870651101 0.08845298003281808 
1.0122918769840488 3.6859142369285554 0.6193620720833054 
5.002387400350255 1.658754156472149 0.9342958091490262 
2.00661193920576 3.2445019055836575 0.9464061177237751 
3.507720824400475 0.15424725589874289 0.10907031794710442 
8.503801634299897 4.346924354025392 0.28494780753782784 
8.01071105750968 3.133150930436552 0.5861086136363489 
2.5016903433570343 4.516467253887991 0.9363065556701687 
8.509773427535489 2.4856711129562847 0.2785759023405976 
5.742506662427361 1.020307204215217 0.9361179066240206 
5.257168478290561 0.6087470066700824 0.5506499571990704 
1.5041323796116186 5.117719917826154 0.38282811334726763 
6.248293083264763 2.5546361910251174 0.9405290719473534 
3.9990901704521455 2.0068588395814078 0.9380863885586553 
7.761633546128515 0.631654891078843 0.5597368240836064 
5.995702758810497 1.5468598574530446 0.9427345056659735 
2.753851173995653 3.2031561616483692 0.9460630496971442 
7.506218967567892 1.3017481620833826 0.8657036020338909 
2.5004904105763446 5.095161740810261 0.4056623508788366 
4.50043484997483 3.3941917172082445 0.9347570557808912 
7.757225114896421 5.569357299679086 0.03756014676690728 
3.757032509714737 1.7755789438638931 0.9318320357918387 
0.2543966104792631 0.08239655166674659 0.10126908037927748 
8.75246874901174 1.0592049429518349 0.1259614285114028 
1.7430746385876996 4.368185474831483 0.938073163034045 
3.514136009534304 2.5280088161099403 0.9432168518345412 
5.249495207058111 0.6585906612259387 0.578761530946939 
2.7454065560198475 0.34544873588645725 0.3051948406694611 
0.7485365768506126 2.7956662696885326 0.45933513624293293 
0.2475489907606343 0.45346597571557934 0.15456269471086434 
0.5001134359246344 1.0602428670337067 0.3049541311644409 
7.761633546128515 0.631654891078843 0.5597368240836064 
0.25069703926429326 0.16358480769384914 0.13633187577068176 
1.501495347692304 1.320041926886455 0.9373499185351197 
3.9964918738583344 3.7478621652535935 0.9421017831935214 
7.7597844226599655 3.6819928604732004 0.7292223527013412 
8.000548632949304 4.321696436498976 0.5782116717252314 
3.499839042031016 3.148966173183954 0.9394723037575271 
4.259122669755039 3.5610420659283633 0.9317604014484421 
5.005183546909749 2.359737160232961 0.9346490340932204 
3.4914896114108753 1.1781182256238916 0.9278435263863837 
3.504506618708267 3.6657558586072856 0.9340865509406691 
5.997146331350445 1.2933122703848345 0.9351283314242647 
8.005377015508033 3.8554123999155263 0.5843070586001669 
6.264325584702094 0.6271447017717509 0.5525622807204098 
1.99059771178697 5.302084602711458 0.20028847723413634 
8.757817028840616 1.2029327377943113 0.12173610940751577 
4.257996488428068 0.7502452725669589 0.6840843568991714 
4.505627254150072 4.586356831219157 0.8652415343551937 
7.24956067080418 0.7990373049713627 0.7210939700690248 
8.750548024682427 4.314230769094624 0.11608902991066838 
7.502482610147106 1.322509286519366 0.8548315777403129 
7.00377605588551 4.553524526744581 0.9375465778724329 
2.752950634667425 5.328952387234361 0.1887663041741317 
3.5086014051106424 2.8850273439311236 0.9367587335406665 
2.4998336818415634 0.38602837536715995 0.3326377574889439 
5.2530294743493595 2.501125299932958 0.9303958032320071 
1.2493620802596401 1.8655088520684142 0.7766735198583975 
8.755316157079951 0.13354379147227163 0.10439131852981366 
4.257476938064995 4.522586407048176 0.9450991478391957 
4.260963336541493 2.2250844832066394 0.9377579669993118 
8.500777298052832 0.7670006854611587 0.26892574631360955 
5.50296266537854 3.3414003892684128 0.9362293213931647 
8.251122554585114 0.645011636351847 0.4237202778164264 
5.998476706345092 3.870069397631174 0.9380202010410638 
2.509985712414429 5.08551910298397 0.4303340875165593 
8.264608270744516 1.0738589925248367 0.4303235010020662 
8.008582515074243 0.3364178928003346 0.28999153255840887 
0.7493234351037334 2.8262373345670393 0.4565839969491356 
3.2543285798427943 3.9183372263205665 0.9486813609924415 
3.764024515337429 3.3189901525679426 0.9315142948919797 
2.2615029692130793 2.016460581600897 0.9350365823892142 
-0.002391405831356943 4.983988570352047 0.07132355621033849 
1.7581213147574852 5.403001544411342 0.11844459435148523 
0.5005421615662695 5.550564833966577 0.05700188237314269 
0.2539912275116038 3.1476805898018267 0.15302210152451612 
7.492514098767783 0.6335815605026901 0.5595799807753231 
1.019858993816323 4.5687570038324585 0.6141948956427268 
1.501495347692304 1.320041926886455 0.9373499185351197 
2.4979362776300245 1.1258764650244077 0.9386292695205749 
7.999961454372315 1.5919667006901599 0.575042137595669 
4.0032395271235375 2.1124652633177785 0.9369121207790672 
7.758689441428222 5.0109444585063665 0.49020987140304684 
7.500973120047668 4.760956947875694 0.7309600166771959 
4.754210377603891 4.164215581755498 0.9383448311317459 
0.5067479800950344 5.086396962645727 0.3162062610016702 
0.7427526431919307 3.856375482204273 0.4588433078024111 
6.243582060043593 3.2563850238742025 0.9393717365995902 
2.747169714563121 2.8080670626898145 0.9452110867836483 
3.2511913610666734 3.1249094137720608 0.9249781068737694 
1.2579580638083085 2.8601428380143608 0.7756124518435382 
6.50859114205794 4.938069982648705 0.5559306695992109 
2.753201832078973 0.7867512970513353 0.7081455264704283 
0.5115290087406889 2.6131062512201058 0.3088868259258083 
7.004919851791821 2.880779628450189 0.9456153094973011 
5.759601251360284 2.2502976969418884 0.9341526127482735 
4.24907283653402 2.3654147068464897 0.938244249013315 
3.740595903554064 3.941911286758511 0.9328708812007004 
8.001502179377201 5.3019585614002995 0.19238048698652901 
8.758632782795265 0.7417887003371149 0.11746951423053213 
5.751628814479476 1.0042082342983512 0.9361220901762929 
1.7511882103153378 1.9021237236507151 0.9357817696426978 
3.496268516555719 5.118185484716566 0.385156095733881 
5.258958419236459 5.143595997935099 0.3742358816582597 
8.510568685265405 3.816014316653258 0.2725793357108949 
5.5137818662157825 2.738044425243452 0.9555502143792566 
6.506638820234133 5.486903697793635 0.10823634165679877 
2.496472466614518 2.291808733760967 0.9284673801676162 
4.50043484997483 3.3941917172082445 0.9347570557808912 
5.2530294743493595 2.501125299932958 0.9303958032320071 
2.261729450441385 4.619248122510229 0.8635800214441656 
1.0052428363905483 0.6418428071868816 0.5855384831696221 
7.253394681508409 0.670012067205102 0.5900671234854508 
5.749919952953205 1.60028549308619 0.9407353087793232 
6.0008018546603665 3.146772829095128 0.9383431957045532 
5.008394901503987 4.6026811915676555 0.8705688502969067 
2.514394349594589 3.7523648246860457 0.929041438944228 
4.246985012944968 1.4034222684470257 0.9340267142039498 
5.5137818662157825 2.738044425243452 0.9555502143792566 
2.4958949650493922 4.840746050551279 0.6584111092097196 
6.753826043013496 4.104055144265296 0.9377534608198341 
3.4978512210576747 0.02721211037552232 0.07533031582757826 
5.0051986513799855 4.809744605839098 0.6827091732690304 
4.510108877461797 5.541793920113982 0.06999639584657272 
6.50631870785034 1.6258718050097354 0.9396338405175604 
5.2534301092388445 4.9373399352238225 0.5670055347310717 
5.505051573080896 1.9855028563097061 0.9432948458598654 
1.0090675677538703 1.670921849996521 0.6229599652366512 
6.99770220515367 2.150191028974345 0.938088381432253 
2.495143510637467 3.646597465366335 0.9326537790352956 
6.75490757100539 2.2591924119134297 0.9427787056887951 
2.753646371620093 1.5600750620417536 0.9419708909108834 
6.508979874405859 4.956986866146893 0.5341493985182041 
6.493442848952396 0.824969783948167 0.7448075371206098 
1.4977165521007187 1.7906322479531815 0.9372403516455725 
1.994929239352878 2.090733261941958 0.9314510470275175 
1.2535541869046951 5.030028994450348 0.4689575418390151 
0.9980312938207383 0.39611455683045693 0.33651631931403114 
1.5004404720159672 0.44804968052033867 0.37933361695555134 
4.7560406156815045 2.6918209301089995 0.9553456385734427 
4.243930150138154 1.0492980371741318 0.9357324091135572 
0.7393393512175399 1.1853727550144262 0.4533082998652284 
2.0031704260323338 1.156696221092166 0.9333764724801444 
0.010747048911795095 4.174627811539137 0.07502778925236897 
7.744118193578211 4.140894638522522 0.7329617080577867 
4.244557377352843 1.7727284630072087 0.9471646930132813 
3.50744590093565 0.8873336065274787 0.8651289420225806 
5.50363195340473 4.422834019430297 0.9313811160582859 
0.5032437394740826 0.21647662345384208 0.15898947239566194 
6.753204562551045 4.214787800061405 0.9319323585008273 
5.257134662268985 5.259600632081801 0.24008490017978074 
3.9976532283759503 5.238464094068817 0.27895238477624024 
8.00298881120441 0.7896572549488107 0.5798387894344526 
1.497377320872791 2.3811838531403233 0.9412814366574627 
5.007604513803405 2.6757605677283727 0.9327625966899307 
5.496120505979189 1.0269709035243342 0.9348943709333866 
3.500736336652119 3.9360979125098656 0.935347084853742 
1.7528076786141793 1.9414596022644501 0.9433148805331135 
6.764814636202559 4.349183246165725 0.943776057379088 
-0.002969747347521657 0.9325895626076139 0.07393558239379461 
3.5013747202546766 0.2515346833435911 0.19642824918619 
4.507695290857125 0.004426194193015542 0.04517576762686489 
7.254733689406454 4.755282550414035 0.7232639062230333 
7.004919851791821 2.880779628450189 0.9456153094973011 
0.7566563477022578 0.45256765826918494 0.42973817046020024 
7.502482610147106 1.322509286519366 0.8548315777403129 
0.7479719313300965 3.232472714123465 0.47420123097619155 
0.25668745638522567 0.1607205087754141 0.13468915456668473 
1.2427103419408452 0.966798515127523 0.7731869698948056 
4.765774384436058 4.337052805439785 0.9380237364612848 
5.746286819933466 1.607106061458172 0.932125676175205 
0.5032839361103086 1.5288744826423355 0.3196095060369143 
5.503522901743535 4.4269708213670595 0.9423336786283427 
7.755385045157148 4.565217968507463 0.7376706682386197 
4.24626538481897 0.13138071041473523 0.09279413745601728 
1.2510803900406327 0.3404623276202591 0.2877923837336577 
1.2599505929376507 3.571445541076648 0.767848935275501 
7.254278003251185 4.193116325617691 0.9354657463497522 
6.7591248786537035 1.491757442403414 0.9301398476633314 
3.751641446736517 0.5478559478800213 0.4853176150161767 
8.763299233120902 3.150924283590157 0.10946343432560027 
7.49975828350507 4.3834533534322535 0.8687355686980969 
8.497004641707147 3.547979901198025 0.2672386219823425 
8.773323719962194 5.283743168211242 0.11507795433053668 
1.7501067162913189 0.351786667393671 0.2866575231459609 
0.010747048911795095 4.174627811539137 0.07502778925236897 
0.24563085747309887 0.7826980698549354 0.1533938996682403 
6.260708513969964 1.2266579308368424 0.9370101622772044 
3.2620982169457404 4.8187996815981355 0.6774383704291183 
7.753934517642265 1.7336143921554048 0.7373755011837515 
3.740595903554064 3.941911286758511 0.9328708812007004 
7.24956067080418 0.7990373049713627 0.7210939700690248 
1.4880376863743523 4.3979011765791345 0.9410955531276963 
3.506780210377925 1.3440252977512894 0.9245221423270339 
5.761154381316663 0.681983690689863 0.5997681088397523 
4.50891876915552 2.63520736348405 0.9337233915322296 
8.755992448999782 0.7213774124917548 0.12443258588781256 
6.250487805150293 0.8625773403885634 0.7831110630458957 
8.49988339840119 1.6865111913793809 0.2639636956198392 
2.514394349594589 3.7523648246860457 0.929041438944228 
0.5032437394740826 0.21647662345384208 0.15898947239566194 
0.5016002889732311 4.680615922598447 0.3111156532675905 
2.9957326509252504 2.9340116904995748 0.930038627106646 
3.009249441185287 1.427423307577562 0.9336710470760179 
8.49159050127846 5.112919206670338 0.2715764842917125 
6.014071689130817 0.6058643723390332 0.5350069551725495 
0.24947833687162616 3.582944634402986 0.15777591777510033 
2.996731487424136 0.40228890839018927 0.34259124257164136 
0.5074412027795233 4.804426004197026 0.31446834823152087 
0.25194685902057423 4.368190536858228 0.1655118058077418 
0.48767406784031847 0.13885455481324355 0.11307457507296044 
0.24266930247265386 2.1671691777028825 0.15322217578580424 
4.014526768458548 3.4039775250326687 0.9425864853871376 
1.2584032060778645 4.690860616258421 0.7620288664438852 
2.763078608212349 3.561314693399348 0.9350349645035305 
7.0124936827652125 3.7663087360931344 0.9504373114922061 
0.7604705889007202 0.7158001096904607 0.47628461857136195 
1.756423365445858 0.6441251671294684 0.6073648492223668 
0.7393393512175399 1.1853727550144262 0.4533082998652284 
0.017041654908222556 4.496292896450532 0.08385247422467546 
2.0022601985042074 0.8611547092304483 0.7765741959318151 
0.7516577281876387 5.23949954019835 0.2581981953514518 
8.00721659167575 2.7905721180030754 0.5725998136137515 
5.494320056257625 0.7935004620335195 0.7002589446399038 
2.996641517116163 1.6066595042749066 0.9446323153774692 
1.2579580638083085 2.8601428380143608 0.7756124518435382 
8.747204163527657 2.9605580055494753 0.12059916451342961 
1.7549366907709691 0.6035371025415387 0.5334516540840487 
6.007649454412705 4.641287406403196 0.8522191498884664 
2.0053293843113296 3.3647333484235067 0.9424118491714395 
7.247512799609062 2.082607592662134 0.9353058856374886 
4.002696939412481 1.056465893000581 0.9324111635683272 
7.498652115316219 2.2430820086997096 0.8548648741415842 
4.244075605950582 0.6465176612234494 0.5790662722108526 
0.7557397071707708 2.3883615312817352 0.46530677642551566 
2.497201288979203 2.8925316542656896 0.9421992351257628 
1.5121082701508084 0.5009153256095782 0.43266374489528225 
4.751288052659501 2.2891780217356574 0.933086386874696 
8.259015447810832 5.198804069938795 0.3714460014621339 
6.764702346745556 4.409525983722305 0.9435200367448634 
8.252124035099596 3.3188893929453203 0.4357792339166866 
1.2535541869046951 5.030028994450348 0.4689575418390151 
2.0065148258104557 5.3629056016933 0.1691420751319954 
3.7474033290667546 3.040666337413323 0.9337138500186899 
8.250847698605234 2.5870452592151505 0.4393490136896099 
1.7573862268387839 2.29113005687602 0.943555591549906 
2.5016903433570343 4.516467253887991 0.9363065556701687 
5.752533734445113 3.870036935562541 0.9437440355444526 
3.7467213135746875 3.6788382279800467 0.9389306518524925 
8.751614510878756 4.589194379376483 0.10770674833836615 
0.7502666799175735 2.323595471044351 0.46724381523753344 
5.992599682554489 1.4011249891370268 0.9371760637977624 
1.5008217007634415 1.9037560422853907 0.9511910350012532 
5.752118451679332 3.9445570210349166 0.9392433492030362 
6.507890574217435 0.6441999551144213 0.5730787126618963 
4.759013192217588 1.0254147265731424 0.9449540757080372 
3.2438760133242104 0.4309119865023522 0.3705850108735994 
0.2543966104792631 0.08239655166674659 0.10126908037927748 
0.7427526431919307 3.856375482204273 0.4588433078024111 
1.5127255561178272 4.504816794209159 0.9428587899739628 
5.741568830042648 4.724890302380625 0.7554724752946591 
7.249096790499058 1.2838533978683895 0.9398071073357568 
8.010221142937294 1.603469146571533 0.5788414226501907 
5.50296266537854 3.3414003892684128 0.9362293213931647 
1.501495347692304 1.320041926886455 0.9373499185351197 
7.506584758708673 1.6359749723669559 0.8668847244138017 
1.9988858903902387 5.114179398698121 0.39806069739772226 
5.746286819933466 1.607106061458172 0.932125676175205 
1.2427103419408452 0.966798515127523 0.7731869698948056 
4.7506280636013 3.1512635270993723 0.9456778634397205 
7.492514098767783 0.6335815605026901 0.5595799807753231 
6.501585203081404 3.9378750339849264 0.9408572452042233 
6.509089186637936 5.147468562188592 0.35560255881936365 
2.996641517116163 1.6066595042749066 0.9446323153774692 
5.503621908467207 1.6985744363739448 0.9405516830102669 
4.24907283653402 2.3654147068464897 0.938244249013315 
2.7553610994873696 1.2393535988286453 0.9358752433606723 
2.5058069302639714 3.68395277103546 0.9514166056645212 
4.001000465095421 1.4338366055883125 0.9318582310088395 
3.7533220261938838 3.4856012493894997 0.9363237803285166 
2.2547144198421782 1.0545891817440847 0.933273228019147 
1.9938590629541042 5.503264693397033 0.10522947871596086 
5.997555629796029 4.778805105262206 0.7104734319032087 
4.5146469012216 2.348256029681135 0.9426819247821314 
8.261348739954474 1.6360930304096297 0.4280485335347256 
7.7509837180277446 2.3668888570539077 0.7185062068881503 
3.5060399118786205 2.699106179710506 0.92364881839928 
4.26832945794389 4.791914367037663 0.6870119974295823 
3.2438760133242104 0.4309119865023522 0.3705850108735994 
8.508501425285287 2.443751580567971 0.28087280027798106 
8.508501425285287 2.443751580567971 0.28087280027798106 
3.498772782930018 4.154314640874807 0.9383205042347144 
7.01416436697942 1.7965573232542862 0.936210874942274 
5.7560203250230755 4.518576532621934 0.9403309531933683 
5.510611780445396 2.7065738032884594 0.9280080195126567 
6.501585203081404 3.9378750339849264 0.9408572452042233 
7.25595611512717 0.2287626755448736 0.182290466148345 
1.5041323796116186 5.117719917826154 0.38282811334726763 
1.2570271292275084 2.902352980580195 0.7844532112683479 
7.996962184720867 1.9022862709969441 0.5834173881830299 
8.262486050433763 4.133217043728462 0.425234442223008 
3.752595234971324 5.544532639380322 0.06090965090811602 
0.49965036368150173 4.821354290923211 0.30690222812402396 
8.263736325714655 4.32629929744035 0.4201216709836105 
0.005910313360040246 3.8601733485439795 0.08213661467669278 
1.246870608460933 3.93113135509861 0.7768383768855828 
5.004950682832139 3.987789763878583 0.9294613435563663 
8.511035301146878 2.270106373614334 0.26260435993780057 
6.753397073117915 1.9275896241223178 0.9457506133112762 
6.753168364747389 0.6485306508209843 0.5835687500133319 
4.257996488428068 0.7502452725669589 0.6840843568991714 
1.5052881548394452 3.5087943971477564 0.946670732890549 
1.2548175912728248 2.253674634830266 0.7752011628535007 
5.262086791599905 4.343130465732403 0.9415841127634481 
7.501285118279029 3.4699665994471323 0.8636471179061472 
5.749700524144452 3.219800804105798 0.9358606678510902 
2.495143510637467 3.646597465366335 0.9326537790352956 
1.7545962841203364 5.435694183059899 0.08425332986935927 
1.9938590629541042 5.503264693397033 0.10522947871596086 
6.503924081032194 4.439098590226065 0.9278145510782864 
-0.002969747347521657 0.9325895626076139 0.07393558239379461 
8.754934095129462 4.762859996904314 0.10628932757388668 
4.2522833489334095 0.5723433309829764 0.5084573380502118 
6.5055967904415395 0.5300871850769566 0.47219233092636115 
3.005971581468424 1.5959893238328342 0.9419258455923384 
7.007668846070243 5.0313859321072485 0.47588822424762545 
7.49975828350507 4.3834533534322535 0.8687355686980969 
6.252140853538107 0.6878568109706978 0.6254619503350615 
8.010221142937294 1.603469146571533 0.5788414226501907 
2.2678077975334783 1.3749206718065503 0.93586188854954 
7.2566744357795745 5.530315821335117 0.08169727712868287 
1.7584330692149073 5.56222011968696 0.036858327655917886 
2.0011102617365895 0.9722722698147023 0.9462652397215312 
8.755992448999782 0.7213774124917548 0.12443258588781256 
7.510280486208817 5.319628767378925 0.19442275907635284 
1.495196105874269 1.2791755228360708 0.9412041809556584 
3.7494914314458723 4.596520924719637 0.9429282870434075 
0.7545890161806484 1.356476882790472 0.4626206534683104 
7.505578106622814 0.3594773873525511 0.30842800621177874 
3.7605536721456074 5.367397607382224 0.15572336199828588 
5.004950682832139 3.987789763878583 0.9294613435563663 
3.50744590093565 0.8873336065274787 0.8651289420225806 
0.7553064689870482 1.621143821110277 0.46375266761451694 
5.505251757180996 4.525484664244722 0.9393126095575453 
1.7527950564302273 5.5247373488754565 0.07082539538629062 
0.25937118038385965 3.9403927627696085 0.16087865833145032 
4.0068919810489 2.803442618957021 0.9416235991510854 
2.5013199537824873 1.3899533260191033 0.9394557092279577 
2.747169714563121 2.8080670626898145 0.9452110867836483 
7.763841926018874 5.276602792307948 0.2484355448462515 
3.4986131781427865 0.9528732690410434 0.8642658992108389 
0.2490289219038815 3.7860113950957697 0.15677266474118978 
1.5008217007634415 1.9037560422853907 0.9511910350012532 
2.4977620895882495 0.14216581397880573 0.10082096017190625 
3.500844339865167 1.6089799266686509 0.9410717605104154 
7.266840938566487 2.7360874785694116 0.9417208756928415 
1.2565551193130164 4.485037534297695 0.7806608495737273 
7.259548681342834 5.336818184126425 0.18560516884647768 
7.2566744357795745 5.530315821335117 0.08169727712868287 
5.252693190582607 4.172783854108038 0.9412380017417578 
6.243582060043593 3.2563850238742025 0.9393717365995902 
2.9998329966933874 5.3254192023199 0.18686972030778834 
1.2486326275702464 1.854823286354597 0.77483902212688 
0.49965036368150173 4.821354290923211 0.30690222812402396 
6.509334033019864 2.6321822553092358 0.932147433894487 
5.997146331350445 1.2933122703848345 0.9351283314242647 
3.2543285798427943 3.9183372263205665 0.9486813609924415 
7.495995573079265 1.8234839741830082 0.8702103283779696 
4.742988479218078 4.961728366335139 0.5318947110485602 
5.003878818377688 0.3016137119779212 0.24662352631270473 
8.258175312337825 1.6730000409277572 0.40652903088217485 
1.2599505929376507 3.571445541076648 0.767848935275501 
2.7563755974036077 1.9628172584052845 0.9330624313614637 
1.4986369947902554 0.7709424206063363 0.6970835879325293 
5.745591627616858 0.4505091125296949 0.3954124417837509 
2.012296516033055 3.9246698720039275 0.9492348157550722 
8.255462799900446 0.16446319050845265 0.11474672903965867 
5.50744884051398 3.4459790707886993 0.9334260084708946 
5.746515265877909 3.2121275742518267 0.950462952193623 
1.7488002335202055 0.20543909979105113 0.15274716291469045 
7.263771635385609 0.07223671964649095 0.103992246332695 
1.5127255561178272 4.504816794209159 0.9428587899739628 
4.991048462802934 0.1559322940511367 0.09773047075423225 
5.503522901743535 4.4269708213670595 0.9423336786283427 
5.498563087444512 3.8727576844104137 0.938854055714471 
0.5025761915815663 0.9314251746204717 0.31112756978556144 
0.7542039586661192 4.7244771893357065 0.4633881730357413 
0.7545890161806484 1.356476882790472 0.4626206534683104 
3.001339668005973 5.25932081448366 0.25956775146802075 
4.998452472127747 3.0594166665501557 0.9355773632843932 
2.7543100347117555 0.24050826540383693 0.18893718739172372 
8.503955976114774 3.6969272578621246 0.27336281620647923 
4.244075605950582 0.6465176612234494 0.5790662722108526 
5.242973253843253 3.4728335416060974 0.9375307571871973 
7.762550140425968 3.084071961149376 0.7295940219181004 
5.007604513803405 2.6757605677283727 0.9327625966899307 
5.505051573080896 1.9855028563097061 0.9432948458598654 
3.499839042031016 3.148966173183954 0.9394723037575271 
6.505035281443401 4.019998699071246 0.9392350311941603 
7.262951067033081 1.0688094627696423 0.9296379434096746 
6.504539756208895 4.893822664397333 0.5972335283555048 
7.995784680582897 2.351287750643484 0.5687708408523153 
6.247522249307116 0.347703464627711 0.29545746129124195 
5.752296744655962 0.9594592055709295 0.870077089551534 
1.2565551193130164 4.485037534297695 0.7806608495737273 
7.250117862791676 0.9220985340347101 0.85888839144255 
6.261581500745534 3.6851175594660406 0.9440060771960794 
7.504527722694714 3.6553829113253706 0.8583133941187849 
1.2563411280158576 3.6021371651694034 0.7780442159734325 
6.75958353888255 5.341846670469305 0.17128400889114417 
8.001065740890088 0.6305641626642396 0.5733798726426881 
4.750954049961011 1.475136992223038 0.9436563676561438 
5.256576707616318 2.4389310566348437 0.9431556917933187 
1.746844408456307 0.6062946921326857 0.5302175352467438 
3.760336836088337 1.7304218893832983 0.9306167138525182 
7.743677927661371 0.841448211308826 0.7223373208377741 
2.2543778094657956 5.204590984391382 0.30677675422567485 
5.999703940955493 2.3250983647284125 0.9266663799863639 
1.2612600695385001 1.3843125690450604 0.7692101296558806 
8.250432056815143 3.7910334590981294 0.41391746268006246 
3.9990901704521455 2.0068588395814078 0.9380863885586553 
5.249495207058111 0.6585906612259387 0.578761530946939 
1.7522653809805186 2.553689744344477 0.9334490885062819 
6.0011887268756245 0.4111010351593441 0.35739604957145643 
0.5032437394740826 0.21647662345384208 0.15898947239566194 
4.501891160915467 3.908940105661089 0.9322516710591943 
5.753001034992286 3.008708027432352 0.9372585614948333 
8.760487708305151 4.4735088157614475 0.1153236895212442 
5.256725453919141 2.740631666751797 0.951348195510673 
6.501331897921163 3.8131518155822857 0.938904784820298 
4.002696939412481 1.056465893000581 0.9324111635683272 
8.014955214221658 4.6598730876798875 0.5848717606311712 
6.99770220515367 2.150191028974345 0.938088381432253 
8.001502179377201 5.3019585614002995 0.19238048698652901 
1.7584330692149073 5.56222011968696 0.036858327655917886 
0.7493234351037334 2.8262373345670393 0.4565839969491356 
1.243489007077982 0.16044726383211227 0.11563315102087385 
4.759013192217588 1.0254147265731424 0.9449540757080372 
3.249518116240755 5.435629557153749 0.0863356862596291 
4.259122669755039 3.5610420659283633 0.9317604014484421 
2.012296516033055 3.9246698720039275 0.9492348157550722 
3.764270847141989 5.109838598195409 0.3932203123837725 
6.507210072086141 0.6917597794478917 0.6173182889793971 
6.753204562551045 4.214787800061405 0.9319323585008273 
0.5115290087406889 2.6131062512201058 0.3088868259258083 
1.0000884184494034 1.1375464306873295 0.6118245749778544 
6.764599398745455 1.8622806077767107 0.9489264480445512 
0.0026551211035511714 0.29550835880631554 0.058362072317647375 
4.243930150138154 1.0492980371741318 0.9357324091135572 
0.7553064689870482 1.621143821110277 0.46375266761451694 
3.7499352826055294 0.37079152065724463 0.30129105069913115 
4.74909369397855 0.24825976064540076 0.1860176357664852 
5.998476706345092 3.870069397631174 0.9380202010410638 
6.50823268549038 0.272554318103425 0.2254105514119184 
3.5013747202546766 0.2515346833435911 0.19642824918619 
6.255948147492486 3.0505446735363337 0.927012531360158 
1.2548175912728248 2.253674634830266 0.7752011628535007 
0.25668745638522567 0.1607205087754141 0.13468915456668473 
3.002754609986393 1.062641900613717 0.9306777582191182 
8.01535362334698 3.2116763413238387 0.5768153334925192 
4.246222911810157 2.4653395058058143 0.9420630588250192 
2.259680059210334 2.6914880558575343 0.9339883702759787 
6.009570152077949 2.093463163681964 0.9466040849498988 
4.995708189531064 5.484903731921214 0.11068644510525198 
3.752595234971324 5.544532639380322 0.06090965090811602 
6.5057284676375815 3.5031768653227107 0.9329115343492927 
5.255220663799971 4.0026440883842085 0.9350762856068535 
1.5009142008918457 3.7788926961402627 0.9362424956172389 
3.7576534220541844 1.5202249013402296 0.9406252085510766 
4.75188477204374 0.5830482328967128 0.5101643036303986 
2.249414023331553 1.161608369620974 0.9417260715030169 
0.7496473267889533 5.190696864481798 0.3189111091360601 
7.998728348400034 1.436439758278511 0.5867178263385269 
3.749419534318647 5.277281349818092 0.23999741150911344 
2.0029630228354693 0.038270530254638606 0.06484548692806236 
1.4880376863743523 4.3979011765791345 0.9410955531276963 
4.753719185945963 3.628370658606363 0.9386937322651138 
8.000483230969579 5.1668350088887465 0.33738841356899574 
2.5013199537824873 1.3899533260191033 0.9394557092279577 
8.25158501131243 4.505298894468339 0.42880972079225604 
5.257134662268985 5.259600632081801 0.24008490017978074 
8.503955976114774 3.6969272578621246 0.27336281620647923 
0.2475489907606343 0.45346597571557934 0.15456269471086434 
0.9977349709247191 0.5981312041989767 0.5771053661519336 
4.251364667332675 1.1085056074552515 0.9364351053144324 
6.25174476644134 5.047637491440401 0.4498289569608251 
6.245409380226958 2.1190375929422665 0.9293684158800255 
4.249425201177224 5.248073273018375 0.2685385823949389 
4.507695290857125 0.004426194193015542 0.04517576762686489 
6.994877952676349 2.7114860136457533 0.9455149034476668 
5.997146331350445 1.2933122703848345 0.9351283314242647 
0.25779351100712866 5.392732875572411 0.15195188836487658 
0.7451100318952554 0.023141841335526596 0.06777149210898699 
3.2514052313992576 4.70010155217489 0.7789290970851274 
2.2495425337159975 0.9608025920621478 0.862870310340831 
8.010746129603072 4.357006561466152 0.5759514168435974 
5.005247622295003 2.598008468447604 0.9434900602013225 
0.7551251164226348 3.4807190691878667 0.46238208846645074 
3.504506618708267 3.6657558586072856 0.9340865509406691 
7.504162805724221 0.09053222330420156 0.11639598903892542 
0.48696968954459807 2.1043261970112974 0.30631450803817806 
5.496058722432132 2.309903146944048 0.9452161354586837 
8.756992403105766 4.774831833293843 0.11868258909413895 
0.7545890161806484 1.356476882790472 0.4626206534683104 
2.496472466614518 2.291808733760967 0.9284673801676162 
2.5049757062797764 4.295684806780594 0.9336770319961377 
5.756422582991982 0.6813776588118176 0.601981533031684 
3.5068600407145576 2.277578294356919 0.9352266549774375 
0.25341573522350985 4.1768960112327305 0.14382964920599586 
6.007649454412705 4.641287406403196 0.8522191498884664 
6.75490757100539 2.2591924119134297 0.9427787056887951 
0.24995147261384967 4.20301076123409 0.1412264979949272 
5.74520339954691 1.8606400989017255 0.9358986365893601 
2.497201288979203 2.8925316542656896 0.9421992351257628 
2.490535468964446 0.6368145431440768 0.5636981790429703 
3.009860577022771 4.599775829151655 0.8629775141780924 
1.7488002335202055 0.20543909979105113 0.15274716291469045 
3.5073222094025924 2.005720868535161 0.9449146538583674 
8.760487708305151 4.4735088157614475 0.1153236895212442 
7.492514098767783 0.6335815605026901 0.5595799807753231 
6.245409380226958 2.1190375929422665 0.9293684158800255 
2.4939457206298177 4.597852986321867 0.8611324307337067 
8.760487708305151 4.4735088157614475 0.1153236895212442 
5.005247622295003 2.598008468447604 0.9434900602013225 
8.250051662326264 3.11675774713636 0.4196436977491242 
2.000519783356948 4.492667682236776 0.9376746538216405 
2.9980370701194765 2.4672963480675647 0.9375559539926835 
1.0147705251797396 2.9066259948576554 0.6100679752158653 
7.492514098767783 0.6335815605026901 0.5595799807753231 
6.254429638393769 2.2471183705674758 0.9511674412487525 
1.5138287573933733 1.6911409563915156 0.9337930276932818 
0.2451639102299775 1.5276473610655292 0.15360524676706905 
2.4958949650493922 4.840746050551279 0.6584111092097196 
8.503801634299897 4.346924354025392 0.28494780753782784 
1.25009708692089 1.3411312119661083 0.7670711610266745 
3.259324549449443 5.420138272071814 0.09506378426991059 
5.244859691698987 4.411597309918399 0.9283707832539962 
2.2547144198421782 1.0545891817440847 0.933273228019147 
2.9980370701194765 2.4672963480675647 0.9375559539926835 
6.252910934226945 4.326373571719332 0.9459606533857351 
3.5090653510447773 0.7140304091208858 0.6446571671328792 
1.7521181849818872 3.6395064899240004 0.9354513679506582 
3.7634834988284327 0.9826816457563021 0.9442559144321969 
8.50281276201736 0.34148773099757634 0.2663972073779832 
5.5047502905721 3.510678550822486 0.9364336799458924 
0.250089753565337 1.037985391532578 0.14659573389763356 
3.742871289141525 3.4220478771981377 0.9387136630504194 
4.754454115968437 5.5768388246911655 0.03684462840155 
6.245409380226958 2.1190375929422665 0.9293684158800255 
1.7442757412190524 0.9011601995737285 0.8688452400613148 
4.750954049961011 1.475136992223038 0.9436563676561438 
0.011555945408510303 2.868379883170842 0.08559885185984849 
7.508909176853216 2.29570182371675 0.8588223959064076 
4.997316652468283 0.9005025364245137 0.8737501826431873 
7.01206826615868 4.311372583019015 0.9478484487245904 
4.748216172153068 0.39781091781172406 0.33728523418789513 
0.5067479800950344 5.086396962645727 0.3162062610016702 
4.50729627879224 0.8946031536406152 0.8711595134744017 
4.754206879647757 2.9406188961710953 0.9375962965173944 
2.748769064540484 1.8176812804630014 0.9413072728371482 
1.7584330692149073 5.56222011968696 0.036858327655917886 
6.007300616053113 5.007544111269334 0.4952010043309247 
6.751344661281644 3.752112808252104 0.9404826723272606 
0.9878310791511182 2.9143935766988416 0.6200195446871678 
2.019835890252753 2.8456612235159398 0.9370734005703432 
2.7544261772279213 2.6885681251647533 0.933498192427372 
3.2524268036206045 3.928363845903496 0.9400497857643229 
0.5007132222238205 0.7770325837634455 0.31893574067942004 
7.004919851791821 2.880779628450189 0.9456153094973011 
1.2510803900406327 0.3404623276202591 0.2877923837336577 
4.259122669755039 3.5610420659283633 0.9317604014484421 
6.503924081032194 4.439098590226065 0.9278145510782864 
4.995512959208403 1.5663473621798774 0.9393261593350619 
4.495439037685176 4.848090587847397 0.6318830513770571 
7.742428460584722 3.810640179850097 0.7326285544830847 
6.497085456407867 0.3645990732685749 0.3065464449537138 
8.7596545624514 4.991175904846993 0.11253061704816959 
7.254395147195683 5.514144236173372 0.08192107140298073 
6.497085456407867 0.3645990732685749 0.3065464449537138 
5.005183546909749 2.359737160232961 0.9346490340932204 
3.2441547801358093 5.384181093535858 0.12397632780584343 
5.749150119897112 2.6457277491232665 0.936392060577364 
7.502480430129277 4.34271597460753 0.8646611595183012 
2.2678077975334783 1.3749206718065503 0.93586188854954 
5.496120505979189 1.0269709035243342 0.9348943709333866 
2.2445450864464456 0.6348760963087556 0.5681800214049646 
2.753646371620093 1.5600750620417536 0.9419708909108834 
7.257937670029863 2.481931046498201 0.931298592305306 
0.25668745638522567 0.1607205087754141 0.13468915456668473 
3.249762692701274 4.466722970348736 0.940403190672838 
4.012916249888504 5.3477473233878605 0.17024808349707843 
7.762550140425968 3.084071961149376 0.7295940219181004 
2.996641517116163 1.6066595042749066 0.9446323153774692 
0.7553064689870482 1.621143821110277 0.46375266761451694 
7.250741998168627 0.7208827434029714 0.6424361308555198 
0.25341573522350985 4.1768960112327305 0.14382964920599586 
0.004315278355047511 4.898368110475929 0.08042911334166566 
3.005452596795456 3.9336252922119996 0.9429570258416567 
0.24647121694565377 3.222931773871072 0.1588230647765005 
1.0045339276691128 5.140287611448917 0.3781974706530282 
8.50281276201736 0.34148773099757634 0.2663972073779832 
5.761154381316663 0.681983690689863 0.5997681088397523 
5.999703940955493 2.3250983647284125 0.9266663799863639 
0.5102075662545682 1.037207489801687 0.29447984662109006 
-0.007814922749298254 0.2836377376242778 0.07825802889139788 
7.762550140425968 3.084071961149376 0.7295940219181004 
2.7515267998386124 0.35131892768123846 0.28694755186045634 
6.2446097360470905 2.033356604935043 0.9411878002349089 
0.995967554141507 2.863578436046603 0.6183822251299599 
2.255082098537357 3.8435990303519176 0.9252223908410887 
4.0068919810489 2.803442618957021 0.9416235991510854 
5.503816278464432 4.95607449066438 0.541768189135195 
7.2593326499845015 4.578555993520873 0.9396477200983021 
8.001065740890088 0.6305641626642396 0.5733798726426881 
1.991749298139371 4.235084640941855 0.9421559423337132 
3.7551970624994335 2.468446664125177 0.9356345876106 
6.007649454412705 4.641287406403196 0.8522191498884664 
4.750803289692398 1.8286157082452879 0.9335212419799179 
3.2543285798427943 3.9183372263205665 0.9486813609924415 
8.500777298052832 0.7670006854611587 0.26892574631360955 
8.766231432179977 2.633205401965329 0.1199273124324576 
6.764702346745556 4.409525983722305 0.9435200367448634 
6.498983426248529 1.403417837157056 0.9385837638155826 
3.2547196063758057 1.2783132160302877 0.9306301772669485 
7.502480430129277 4.34271597460753 0.8646611595183012 
4.008024636113838 4.812627851828761 0.6869904243629389 
4.002696939412481 1.056465893000581 0.9324111635683272 
6.768799635956056 4.812010054995926 0.6736254295252333 
3.506780210377925 1.3440252977512894 0.9245221423270339 
3.9976532283759503 5.238464094068817 0.27895238477624024 
7.2521519028529955 0.7819672944159543 0.7043311737699789 
4.742201673458607 1.6265466538657247 0.9352628287748097 
0.007698795080577345 1.855682196100801 0.07677472967987158 
3.752290609911097 3.349742826511612 0.9441317533674566 
0.5005421615662695 5.550564833966577 0.05700188237314269 
0.2581686491473715 3.4390884638150276 0.15915290609582125 
1.0052428363905483 0.6418428071868816 0.5855384831696221 
2.01331877269057 3.7488290518795333 0.9404389613140797 
1.2521131427042094 3.790824297682834 0.7797679081495691 
0.5088505897020487 2.0251564931910635 0.29909307783792843 
7.507625907272868 4.846626623538567 0.6428493429470074 
8.520999047162153 4.291512216885804 0.2718313448128925 
8.50281276201736 0.34148773099757634 0.2663972073779832 
4.502886187202403 1.0918478635799234 0.9290586321016459 
6.9942626788662325 2.8623216188199843 0.9337167583540554 
6.996638287703315 3.613012037536754 0.9373367794491647 
7.997554609146296 2.977879607704899 0.5803884962079047 
4.251364667332675 1.1085056074552515 0.9364351053144324 
4.749070808616405 2.127819567973334 0.9457579937576951 
3.512783703079688 2.807284794817406 0.936933289122883 
1.7488002335202055 0.20543909979105113 0.15274716291469045 
0.7551251164226348 3.4807190691878667 0.46238208846645074 
0.7418550988264822 4.871114227702807 0.4719752244689298 
8.001502179377201 5.3019585614002995 0.19238048698652901 
3.249518116240755 5.435629557153749 0.0863356862596291 
7.755595096832527 2.0875148596345237 0.7317397729523809 
0.7566563477022578 0.45256765826918494 0.42973817046020024 
0.501030735171778 0.7142023222207549 0.3107089025683461 
6.252910934226945 4.326373571719332 0.9459606533857351 
1.7588102449466643 3.585278227285541 0.9376530979355551 
6.50823268549038 0.272554318103425 0.2254105514119184 
6.507890574217435 0.6441999551144213 0.5730787126618963 
3.0053947550422655 2.011014362661221 0.9402459335959809 
2.753851173995653 3.2031561616483692 0.9460630496971442 
0.00382462105587719 1.7391679621747236 0.07223997639882067 
4.750954049961011 1.475136992223038 0.9436563676561438 
2.5065876704993335 2.5067815722895315 0.9356783056082215 
4.252927054015745 2.111312171843988 0.944606739506476 
7.257857762255428 5.327912208187481 0.2009453791399806 
0.24648550309792375 4.69018241165408 0.16164991038796758 
1.7569506458378321 1.5911016795880002 0.9375392351086017 
2.5024717482853793 4.004310706018114 0.9384608368368356 
1.760744042090419 2.695171027854296 0.9325690521575256 
5.503621908467207 1.6985744363739448 0.9405516830102669 
4.255159200521551 1.6191819001491679 0.9378008194343797 
2.2678077975334783 1.3749206718065503 0.93586188854954 
8.000483230969579 5.1668350088887465 0.33738841356899574 
1.7533766601725855 5.4463524121990305 0.08749326315369288 
3.4978512210576747 0.02721211037552232 0.07533031582757826 
2.005583053829215 1.7050503842687148 0.9381526623117704 
2.7454065560198475 0.34544873588645725 0.3051948406694611 
4.758441157428521 3.3885934398473085 0.9359570208161422 
4.763438094535935 2.5197309060608393 0.9482167331273068 
1.497328050977699 1.20881652940582 0.9516753465252077 
7.7440288448706465 0.8934945382656518 0.7421549019009935 
1.4994613692811616 2.552506924023939 0.9420639891210348 
3.5022970006808003 4.372667945058873 0.9263042434500008 
6.748192578289725 3.5555683817805783 0.9418049365017376 
5.7564283700111645 1.3581826145799334 0.9479921545343193 
5.249495207058111 0.6585906612259387 0.578761530946939 
3.7449738777117116 5.024433546763319 0.4663600866977441 
0.7559370028488187 3.3599636308321568 0.46019897699270895 
3.500844339865167 1.6089799266686509 0.9410717605104154 
6.760053327759037 1.297619844893412 0.9399759648693342 
1.760744042090419 2.695171027854296 0.9325690521575256 
5.749150119897112 2.6457277491232665 0.936392060577364 
1.506307121755774 1.5578763622078975 0.9347720351319968 
8.018604137616695 2.492373492721243 0.5813630271414493 
6.014071689130817 0.6058643723390332 0.5350069551725495 
5.745591627616858 0.4505091125296949 0.3954124417837509 
2.7512745226340707 3.833651618372334 0.9402491540622717 
0.0082008214154002 0.028473633882451055 0.0577701970178653 
3.0110574677073267 5.197761767655634 0.31726141074720565 
3.002472378891447 0.5437769542117343 0.48851320420044625 
2.0103534242309706 5.470727037909532 0.12115049092105487 
1.9978744822764578 0.4073534092831968 0.34668503213230567 
1.5022993805925893 0.32427132668966285 0.26637224792320646 
5.003058592643006 2.9580806650638043 0.9394128564893426 
0.5068237144433045 0.7064307680981137 0.3093064574871783 
8.744002775473582 1.417357315510917 0.11819397578594827 
0.5032839361103086 1.5288744826423355 0.3196095060369143 
3.2525455101926832 2.3433624925283243 0.9315003893065562 
6.0008018546603665 3.146772829095128 0.9383431957045532 
2.7441076236601716 2.0129748943638957 0.9384823222178627 
6.749667072272137 3.031433028199975 0.9360397100156613 
5.249601601765727 1.6474928347447706 0.9392098269048507 
1.2510803900406327 0.3404623276202591 0.2877923837336577 
8.255334347585828 5.550756393597555 0.058310675798490405 
8.005377015508033 3.8554123999155263 0.5843070586001669 
0.9980312938207383 0.39611455683045693 0.33651631931403114 
4.248714900355355 0.18889912269105594 0.14555178231342314 
8.26289934267449 2.097773643960821 0.41688979053802205 
5.5047502905721 3.510678550822486 0.9364336799458924 
6.267791195890925 3.819107096356263 0.9411937126508456 
6.499760892118808 1.9943027949209848 0.9404904192990213 
4.249329957043461 4.949830821941746 0.5516348090127456 
8.757495879232613 2.7301330232920464 0.11973622083355144 
2.490535468964446 0.6368145431440768 0.5636981790429703 
0.25194685902057423 4.368190536858228 0.1655118058077418 
6.987116057453939 0.012050065199723731 0.04719726803199235 
2.2445450864464456 0.6348760963087556 0.5681800214049646 
7.504290389738344 4.160513454296492 0.8775699392128222 
5.749919952953205 1.60028549308619 0.9407353087793232 
6.011248799666337 4.358212294805999 0.9360296982924355 
2.7454065560198475 0.34544873588645725 0.3051948406694611 
0.004315278355047511 4.898368110475929 0.08042911334166566 
2.2522980810744015 1.3316623679453872 0.935981869030221 
7.00224513555793 5.2733361254640805 0.23007905686908528 
8.25158501131243 4.505298894468339 0.42880972079225604 
1.5047658628678118 4.216398326757755 0.9404164473540959 
1.4986369947902554 0.7709424206063363 0.6970835879325293 
8.504622479487953 3.9857246206282118 0.25165364948041563 
3.2720310264216708 0.9065191988855648 0.8593227971242395 
1.5012646852833724 4.085292615530755 0.9414074256868011 
8.003729163222525 0.5675845429916351 0.5394953110058733 
2.2615029692130793 2.016460581600897 0.9350365823892142 
2.759084617015048 4.520943030630033 0.9330457457130269 
2.247452809867239 4.144094800705641 0.9339850101037833 
5.757845732128441 1.4869440404701868 0.9391954624350869 
0.5016002889732311 4.680615922598447 0.3111156532675905 
6.7462023969294025 2.8400552457174286 0.9382439195695956 
1.0029214730107625 1.0341323849859592 0.6176810682674602 
4.25209439851886 3.4685128997666768 0.9422645361512888 
3.001896017945833 1.595797803371379 0.9397895264785416 
6.501331897921163 3.8131518155822857 0.938904784820298 
5.253594716699308 4.075346281659352 0.9418787832940356 
1.5020383903997245 5.4221479743975625 0.10398224862092342 
8.262481334343233 0.1370396698371729 0.09504774683144682 
1.2550791063955737 4.585552541118554 0.7674493602486753 
1.4986466426930305 2.399466980082501 0.9409131042108478 
4.496706797636641 2.793424092736506 0.9361314140819771 
2.005583053829215 1.7050503842687148 0.9381526623117704 
