3.006140251328136 3.108684218919795 0.011768123474836089 
3.743540536968686 2.8229417336755582 -0.0026575477139712 
1.010978872154851 5.199649424660318 0.007136832555226982 
1.010978872154851 5.199649424660318 0.007136832555226982 
6.511296933426072 0.5753630661470579 -0.005848110936471764 
6.742475941773894 0.8686046863788303 -0.0061552175134038795 
1.264595131645752 5.21825654185577 0.01397840112502102 
5.259471091253367 4.918268217504577 -0.006121957755049558 
5.253294260769617 1.4721638414659692 0.004229472148875639 
5.247069785345455 1.8787646015312696 -0.008793646602818369 
1.9990266673525814 4.3130907727881675 -0.0026671596118040715 
6.245534446211769 1.5689978952229247 -0.005968216944892659 
6.758058036722449 3.0417439944566254 0.004088488748041224 
0.9992872173306191 2.798001878044372 0.009672100159426242 
7.004118869027759 3.349987754728026 0.008662606517905578 
7.254470481902352 4.3557151352882455 0.0002183029038774079 
6.511296933426072 0.5753630661470579 -0.005848110936471764 
5.001094989170393 0.08435670213044485 0.0007047849824587612 
0.5091646442457033 3.707501372086114 -0.013269435603336321 
6.002867534399298 1.8074716813022547 0.0030554413094992685 
0.007998015300074223 2.0680526225428855 -0.003905161388756313 
6.755954220753005 2.1242525783313018 0.007570391297481926 
2.75106898764697 4.6786182606084035 -0.002233515763395779 
5.7544744066914735 4.000682236090482 0.008510364857940383 
0.2495206857189476 1.9340386270492396 -0.0030455820106394535 
0.009028901308886842 5.671648938649518 0.00011705643512494078 
5.509053863734227 5.238124170737033 -0.006846547338280723 
5.494585131456046 3.2817129021744993 0.008991781942774741 
1.005343657073727 3.634800360961612 0.008519986735700494 
4.509247324423827 1.6717295995021997 -0.002465192868708952 
0.25357592600473655 5.0051763003776175 0.0014650685525439858 
3.260886329643944 2.844110320796801 0.00770154392478218 
4.498385799188334 3.849564689839832 0.00334840920516758 
2.253874766764629 1.2974718660264346 0.0020297896988640983 
2.258858863787443 5.0631801519254065 -0.004480769036808729 
1.494783562060306 2.2106960040113957 -0.0035218586059246925 
0.2506141684053921 5.2330498091401445 0.0017304261383079196 
2.0073473004140197 4.963010901328038 0.002480381503321006 
3.5011337218331353 0.46795433064153985 -0.008909045563923006 
6.755954220753005 2.1242525783313018 0.007570391297481926 
7.249004586438584 1.700014529119177 0.0008401960452246457 
0.7530183456950124 1.316421962802157 -0.0034985733254455477 
4.7540224471900085 5.292202330566122 -0.0009646294896276831 
6.506974997499712 3.8224417338710315 0.003613488918578427 
3.5070264168841914 1.4591449501861513 0.005997050596241865 
3.0062125707579304 5.035313470690211 -0.006112071630037809 
1.005439610402211 0.298292796204089 8.220318363318406e-05 
2.991978107992767 2.79177281694841 0.004398248851654121 
7.006838556040499 1.8674358727013678 0.00016940110069143264 
2.754626155500026 5.4520768100823345 0.009111939482990137 
4.771612206641072 3.1629678044627667 0.0030766640806261718 
0.008627343590415408 5.287564365869077 0.01199888841383787 
6.744345138672187 2.156975477201637 -0.0023463479528817326 
4.758165759801128 4.2889432483101455 -0.012441686078478823 
3.008680127486752 0.6320442602806302 -0.0034631700705274856 
6.2491575032203475 4.353957870565644 -0.005289998859868691 
2.260699420551969 0.7243206202976182 -0.007746181843438686 
0.7626502343061952 5.6432205200818135 -0.011009336759286312 
1.009044570314124 1.8632960220376564 -0.002728632472660732 
0.016438193673504777 3.0945525126119597 -0.003766452966398798 
4.516496880158491 3.9354405490127258 0.01081323586383763 
5.259868231789404 4.900192371622661 -0.008828473574170893 
3.2434676840370456 2.0846548584590674 -0.003501117231345123 
3.5079664684606207 1.5291897745758098 0.005207701278143894 
4.002142539482913 2.342950253174639 -0.0030356592662800753 
5.993851444047911 5.235961128603544 0.004451847168628775 
1.2415203299435578 0.26848790276764045 -0.0012564556297043168 
1.0127968966352652 2.116469603005424 0.011288731865343078 
1.261988033739919 4.13163077504647 0.00781871950512857 
0.5037982509539971 0.3774843336352773 -0.00016439336970615922 
7.008036203376003 1.1428799496474025 0.001928114938183092 
5.00310833235616 1.3766935992444784 0.008722689314979997 
0.25694472522033546 1.6213240242827869 -0.01190267483791154 
2.997377230640973 0.2826652863868129 0.0013873323618174178 
5.740627518894027 1.1403953954871826 -0.00574670285703724 
5.260798738794598 0.8832729241156723 -0.004586218300055282 
4.501718564034751 4.300929912919857 -0.002669819345513091 
7.004118869027759 3.349987754728026 0.008662606517905578 
1.5052838618334639 2.1935596792297845 -0.0066957076601287385 
4.485465400310758 3.059618787205264 0.009427157531799485 
5.510263332387623 3.006991483398007 0.006321637607468058 
1.759847229777599 0.9981832108089054 0.0018771189154338517 
0.5155616038084688 5.345448256615327 0.004515493339421587 
6.009662148892872 0.18223221422770097 -0.0013859791730022166 
0.5155616038084688 5.345448256615327 0.004515493339421587 
1.7434174064913526 0.7324218966162057 0.0007001622637401008 
4.005501761647724 3.3155160882348085 -0.00844120223141794 
1.2586944135273996 0.6448536260057004 -0.01227764428790875 
1.00245934068717 1.7527411635741494 -0.001537916130417006 
3.0068637849158875 4.003662458303709 -0.0026995787055634 
5.509279197478857 3.770305206174623 -0.00022647862295260254 
4.252614278732388 1.730629630527976 -0.007393454319169551 
5.2553021423639885 5.1704443867939975 -0.0022549340489579277 
0.25344536681017144 0.7415743289472877 -0.003666558770276081 
0.5071661224029947 3.483617576138509 0.005178128355722379 
7.015355285739922 4.754437147384092 0.0004208239118859017 
1.9998816919933695 0.22847352324531228 0.0009178345596528121 
4.761058689897132 3.5818175100933534 -0.005582600415058211 
6.506555017268641 1.377307750671014 -0.004557614962102491 
3.2478646531441178 2.8802342756075543 0.0017746809408019037 
0.7546203022540191 0.7225081477854365 -0.0031909960628140753 
4.000270209368607 0.06334067332163239 0.01121702082570529 
7.002873348888292 4.382743704035024 -0.0028060936635329265 
-0.009511666865270652 3.8269480993809815 0.005885078208993768 
6.752074182832434 5.154796246127713 -0.004467101854959231 
3.506367268865585 2.5882351052631103 3.952566141997554e-05 
6.253514496065594 2.041762071889024 0.0008391838201970367 
0.012550903468180101 3.750651824903442 0.002799955803268761 
4.7619562797792 3.54079376787914 -0.0031948049323174293 
7.005902028537605 0.3372539470568254 -0.0012513815664782092 
0.008627343590415408 5.287564365869077 0.01199888841383787 
2.257724035672798 5.290362434511078 -0.0030626623446519553 
6.751384597869236 0.41344429964799695 0.005926278504409661 
2.2611873785582053 5.279446931023032 0.01735227907014275 
5.510195028594793 4.903098906577378 0.0002467741825295999 
3.760485299619474 5.50432392349648 0.0005143876839920504 
5.5031230637310875 4.139198004777049 -0.006990254047498765 
0.5142234722842869 1.4589862974722283 0.0018671530400907097 
6.498432448308401 1.1303502580968947 0.01371855555412933 
6.507835284580852 2.0689894512603852 -0.0037420904327928814 
0.26771691668327297 5.688067624577567 -0.0068522003888076815 
3.0064014872092817 5.489675184724098 0.006875453346745985 
1.7554748080866935 0.4315331247475322 -0.0010193428556424281 
3.0076606149186413 3.2836707870558506 0.0035888423251037513 
0.992415756747209 0.2186081132226751 -0.00797851113400026 
5.505987487644883 0.03668972012268892 0.004563449994094239 
4.994591006554602 3.8023142283158196 0.0018961983821983754 
2.7520980026198667 0.8223070545447979 0.0032149587925689675 
6.263300702320346 1.0030904735669686 -0.006386425488975125 
3.992019629774598 5.408303592411895 -0.0008555094939145753 
4.757108151006848 4.211913072614651 0.005542579858992366 
0.2421359403200378 2.722119345318881 0.004149157770482661 
3.9956562517431102 0.9187057887020296 -0.0013328116467988787 
1.009044570314124 1.8632960220376564 -0.002728632472660732 
4.498250711275867 0.03395126531784218 0.005251862835679574 
4.993286595132803 4.9392239674754155 -0.0018052522982292213 
1.2501701867036061 3.3572176187364002 -0.0006073859896770484 
6.4905511461030665 4.767683627466873 -0.006339263511870587 
1.50199024765839 4.417433742748895 -0.0015160752645418767 
1.506479432479741 4.866704499865596 0.0002897279849124615 
7.256941380277127 3.0645352784147177 0.005799708336727228 
2.2639609625283494 5.4814501795552575 -0.0007874883772110302 
0.7564893204666172 2.7575385447959695 0.002606652837679325 
6.995459554160547 3.493965227107276 -0.0005194394993894794 
5.750745699555889 1.7501293723214286 -0.0025115323239134945 
2.254794289779136 2.6246862657979158 -0.0065413299122245305 
5.004800009810147 1.841966683602979 -0.0060919661907904 
0.26096098469560475 2.880953773965311 0.007598730172880026 
0.9978312172176316 0.7117714730091238 -0.007137785117991931 
4.250803833032756 5.6900502809015565 -0.003230217505191575 
2.7513582199210465 3.9119300175998224 -0.0015681458948254524 
0.5010517665285349 0.2297164109402949 -0.004448513607702992 
5.491856372723946 2.3629421988543156 0.004148047985708248 
7.000927407888314 2.486208814930362 -0.007765546765313205 
4.757108151006848 4.211913072614651 0.005542579858992366 
4.5122472090527195 4.683344598862558 0.002114533985735364 
4.504235936542237 1.646709689646547 0.0192947347894452 
5.7465672812601225 5.33171801508141 -0.013240251669960321 
0.5091646442457033 3.707501372086114 -0.013269435603336321 
6.757732058925476 0.3063962191019354 -0.00015621845110391764 
2.498329770524303 5.553045894774158 -0.01346154102291178 
1.5047670114841873 0.8060963101661197 -5.851535691980174e-05 
0.5053450756393908 2.6359870137320343 -0.001463803507596314 
3.750656678993714 4.004650097855102 0.009551064991625995 
3.49833980776869 2.784937015356126 -0.006645882326015779 
2.0029587019038035 1.3249160231046082 0.0007156864959882848 
6.24340373117817 3.2184306048078937 0.003780653375760319 
5.999958120399459 1.861172330579521 -0.00029580200802944035 
6.253711176440999 0.18607965844825095 -0.0012881768558002326 
3.504506449872659 0.5264352773549487 0.008106583140588573 
0.25880761119827134 2.5165781601500816 -0.006862016330886214 
2.007365474395414 1.0140668734881146 0.00142004264431355 
6.265996715182605 2.691737016893634 -0.0007618626215618226 
2.995155224724302 0.725071870788036 2.060405715132547e-05 
7.24777969071784 1.8786509263260023 0.007515919172273074 
1.5168894728749598 5.637666047128139 -0.0015727807259621192 
1.745345569222035 3.415787947921196 -0.007312605603197489 
2.764917076603424 2.1318116561816414 0.007925298218663668 
3.507819567773076 0.015301330664451811 0.0032508764341083103 
5.5021663135969865 0.3345971989907029 0.0023206125424235355 
7.255018517705158 4.3128820070205816 -0.0015872076410547889 
6.996383800610376 3.9501095424645976 -0.0012945448288909616 
6.744345138672187 2.156975477201637 -0.0023463479528817326 
7.0054813332221455 0.1823699579809662 -0.007782802610076446 
3.9927953922965966 3.999203963607919 0.00018601428099462554 
2.258858863787443 5.0631801519254065 -0.004480769036808729 
1.74782300845574 4.648344863575988 0.0010602918262192845 
5.242870664938477 3.122492513043514 0.0004579059058756745 
6.2564682839010874 4.657240697892767 0.008050809393028407 
5.259272420115461 4.663572636399965 0.010314564210498414 
4.998024157507399 0.41837852275002363 0.004845866808509141 
3.7561537672673464 0.6419853839925688 0.006940522731722508 
5.253086398385264 5.570693257847842 0.007390966489882109 
5.7563352829753445 0.8306059914715669 0.003040500277641446 
5.259868231789404 4.900192371622661 -0.008828473574170893 
6.000596526278584 2.197748050132479 0.006914654851589972 
4.501042420815009 3.4444247388960196 -0.00775811692313935 
2.2639609625283494 5.4814501795552575 -0.0007874883772110302 
6.253809125770354 2.543764729396168 0.0075076201729655165 
0.5053450756393908 2.6359870137320343 -0.001463803507596314 
6.761072028331397 3.8012977760917304 0.0003352474215376166 
1.5027262483152721 4.886831220722251 -0.0019486371254697483 
5.246273423898121 4.429978256993919 0.003884809865753692 
0.24951666133968678 2.240515499956777 0.0025490171423404864 
4.002359213560572 5.422706646607994 -0.0005965469494999195 
6.99520345122116 3.954180677752986 -0.0018323638741955263 
1.7573660550310435 2.473152324601669 -0.004498009590285477 
7.010717744380008 3.127597221089838 0.013337492528451046 
5.751099006999497 5.238344199337845 0.006760300457272144 
5.257731306873948 0.5389957490043398 -0.003445197254359685 
5.500663615574971 1.130584506536094 -0.0006593654881297665 
7.006640155026851 0.30984690048885444 -0.0036114626752354172 
3.243794403209845 1.7526219429763996 -0.005526445587083959 
1.2486512336523612 2.437002309376177 0.005319031133149204 
3.7506059350482146 4.192697121042422 0.014842090841003018 
4.744126771160287 2.6340013152487205 -0.0014498468943696997 
0.014684226138336628 2.658915294717418 -0.0001768213549739636 
6.765573582125035 1.260166658501831 0.006629533505848813 
3.7478552086165937 4.574211013244359 -0.008658041539911744 
0.26096098469560475 2.880953773965311 0.007598730172880026 
6.260663180026924 4.8275442660384895 -0.005816853187871894 
0.5062103295087994 1.4970527896198909 -0.0010802730059578187 
5.498994544539518 3.3691660779802763 0.005210157780375314 
2.0150195588017468 2.711232498160568 0.0010093374878193241 
2.252303800472725 0.7226806611378949 -0.002568936629567088 
5.250311730267905 3.1983855058668493 0.0039540000727077305 
4.247819850826203 4.278990230593957 0.004695179480990955 
6.759239528284018 1.4585409224086745 0.0055235394175891 
5.509053863734227 5.238124170737033 -0.006846547338280723 
2.7475385611850514 3.052641105445301 -0.01015124085811668 
6.006906233946901 5.072173705776634 0.004445080065719844 
0.24660600357397075 2.398172546617188 -0.007868299998536433 
0.5125894935395265 2.6318012450455837 0.0032103117082973405 
2.747556367206815 2.8741994449005728 0.006375908605722064 
1.254739032808171 0.719488759927818 0.0009843589315306558 
6.50125599696304 3.828459835993785 0.00563196888214905 
4.5155394050715465 3.4731447816813703 -0.0026423184031571724 
6.7522326763618405 4.111141373530171 0.006400868134419083 
7.006838556040499 1.8674358727013678 0.00016940110069143264 
4.749330570301594 3.485696562568268 0.0005799442183884802 
0.7606764055161352 5.102533282422651 -0.005321153074628288 
6.50446753984517 3.3704622241642346 -4.996661035880671e-05 
6.99520345122116 3.954180677752986 -0.0018323638741955263 
2.2378160005575394 0.5414096729720003 -0.00933003400113926 
3.504506449872659 0.5264352773549487 0.008106583140588573 
3.7435991067651506 2.1851862699787112 0.0013375981283885005 
2.999212569530115 5.17819078718799 -0.0027474320626093398 
3.2488814261796137 4.488690471018169 0.006727938771778598 
3.7478552086165937 4.574211013244359 -0.008658041539911744 
4.502846797555068 5.1899338315618975 -0.0019284068314643155 
1.7501742274055971 2.24006765534198 0.0032303193963186586 
0.01875787615706933 2.215256040312089 0.00024176775284393502 
0.9968321661048384 5.001578928404945 -0.0071701721321049605 
3.995355824617049 2.877272778803047 -1.718033379459298e-05 
2.2424406509924877 2.077499277684545 0.007648125813886086 
5.012725807582452 5.601333903234248 0.006183829035223361 
6.0046341501386955 0.2434328906476573 -0.006890351904552169 
4.002359213560572 5.422706646607994 -0.0005965469494999195 
4.509244689577728 0.2600704651716409 -0.000541406204783055 
1.5081661893723708 3.517746625819267 -0.0005106348074123464 
3.502440373825058 2.941706417680873 0.0005109449560667847 
6.996383800610376 3.9501095424645976 -0.0012945448288909616 
1.5081661893723708 3.517746625819267 -0.0005106348074123464 
1.2468505558486502 4.502987244886697 0.0007626802641288363 
0.9972384715424761 0.552942140211884 1.899597355215464e-05 
3.511543436967426 5.057432627941462 0.002259507534171019 
4.018181155428732 5.604197558494221 -0.0049320320124053635 
2.013751127494505 0.9465052433399375 0.011293850632316011 
3.511362290187864 1.640725809261153 0.0028153352787382256 
3.2679991968705093 1.3960202644221023 -0.004231845510006508 
5.261953580397732 3.0045339558189568 -0.00510027507547585 
7.006640155026851 0.30984690048885444 -0.0036114626752354172 
1.505410316863172 1.408857223418391 -0.005619069650332041 
3.009681188136182 4.106473914643482 0.009368776923368074 
0.5065814223738597 0.21198357135413498 -0.007331226298223151 
1.508695502537334 4.742393679646659 0.003046309604449661 
7.256584995551715 3.2798879260655567 -0.004800284524934218 
6.508439647333568 4.7967068023141755 0.0007764951698289889 
0.2534068366453524 4.180021008772939 0.009074207830350813 
2.7391057161735537 0.8408879672285599 -0.001786381506504863 
3.7464963318595266 3.4399961272851356 -0.0010241708172833979 
0.498123021833933 5.439606511508177 0.0013147009115500362 
6.496825424812822 3.6739723765044006 0.001289715613496186 
1.50199024765839 4.417433742748895 -0.0015160752645418767 
6.752447816034106 3.516257960580985 0.001446758015600175 
6.010461592894408 0.12178619953429284 0.0024505599333455278 
6.012225766185363 3.3997055428574368 -0.001924542058342775 
6.73942637667991 2.6611340750928725 0.017310724069890943 
1.000534102289048 1.3314079236346354 -0.0006857509275216124 
0.005498277887336471 1.572025882132511 0.012470752137265406 
2.258858863787443 5.0631801519254065 -0.004480769036808729 
7.256941380277127 3.0645352784147177 0.005799708336727228 
4.5056960204615715 3.1990486712095545 -0.004961565491165134 
4.259191937578472 4.549668956797186 0.004023484574181438 
0.5053450756393908 2.6359870137320343 -0.001463803507596314 
6.252681988093188 4.112756252860092 0.0047319219865652835 
3.0062125707579304 5.035313470690211 -0.006112071630037809 
1.7561549280580857 5.46781537006722 0.0029800101352661693 
5.272194873981582 4.881487787885461 -0.006222203575648255 
1.5073270524044253 0.18385313994925817 -0.006832792874634026 
0.25395809489971927 1.1772164310395579 -0.0031185921786662405 
3.2578347497033144 2.7606306131643383 0.0035535575991591565 
7.008036203376003 1.1428799496474025 0.001928114938183092 
5.9961857271216665 0.7382742215969317 -0.003599086176811267 
2.755057068895272 2.958265275332381 0.0027903590854320482 
-0.009511666865270652 3.8269480993809815 0.005885078208993768 
1.7672441209094067 3.3030228299149 0.003126248223342673 
2.249060979801657 1.4094641239961705 -0.0020225298824296505 
6.494777310188891 1.3690778784661202 -0.0032385828329410705 
1.498623977904873 1.363864019862297 -7.682703881008168e-05 
2.7391514334479523 2.9718532917922933 -0.0003395303245170344 
6.507835284580852 2.0689894512603852 -0.0037420904327928814 
6.7521472774259665 3.643612404554169 -0.006350656516492126 
6.751384597869236 0.41344429964799695 0.005926278504409661 
1.7519091031430507 2.063133892119107 -0.0014156266253544368 
0.5056086635505889 1.5204590531040654 -0.0011163721967666139 
2.2537132795326213 0.36995326840820786 0.007263755280799144 
6.7535912744924165 4.828557823942848 0.001655398865468833 
2.0063186565557474 2.427271927590201 0.0005081807751022005 
4.759387401919011 2.744775577173895 0.002307627450973263 
3.2488814261796137 4.488690471018169 0.006727938771778598 
6.506555017268641 1.377307750671014 -0.004557614962102491 
2.0082144625387017 3.28033230471338 0.009157531039061384 
0.7606764055161352 5.102533282422651 -0.005321153074628288 
5.004656271575944 0.6585415950842787 -0.004771961100024605 
5.0025122050976405 4.214286790661055 -0.007472377438289665 
4.002995165837038 5.16573591509967 0.0005978293009047795 
1.759847229777599 0.9981832108089054 0.0018771189154338517 
1.74782300845574 4.648344863575988 0.0010602918262192845 
4.000801482361202 1.1776339659048303 0.0014087555835911461 
2.4985084732093665 2.846198075235717 0.0036215701744245635 
3.4914667006161286 2.2678696355661483 0.003500105293292626 
7.001551967375919 3.531147862602328 0.0023860518570426436 
7.257309908801338 3.899741097376249 0.0012693517339704011 
3.759470325587937 2.0646209121954597 0.0018021703069172048 
2.992812945190698 2.879960441720763 0.00020383928535252106 
3.5030040420008075 2.0964752265045528 0.005351899329049031 
6.766928751902524 4.873032053015821 0.003549255893630729 
6.510930269678612 3.412353990884908 -0.002791864168072967 
3.9980414233014003 5.659182488375179 0.0036833331851549044 
1.507574812727212 4.820750946434953 0.007014946485617721 
0.008627343590415408 5.287564365869077 0.01199888841383787 
1.5063927873348817 3.3409422117214573 -0.003873665598002629 
6.258662703281754 4.260926799007688 0.005665063422269711 
1.2415203299435578 0.26848790276764045 -0.0012564556297043168 
4.999255022222157 3.5173769541195585 0.001485610893766575 
2.504791948023691 1.7992413204437905 0.001204728664516556 
3.2552614154294157 0.3583261855770775 -0.007581001193870827 
5.750378639799492 0.8959506805549385 -0.0059126171941957 
5.009640911845129 2.36166534327573 0.00507419420146356 
3.2579306901587333 2.5596124885704072 -0.005607889578102671 
5.256638939670272 3.4117122057073352 0.00308905156354717 
1.505410316863172 1.408857223418391 -0.005619069650332041 
7.005902028537605 0.3372539470568254 -0.0012513815664782092 
0.006197037624070328 1.395600156221156 -0.0056299861390989685 
2.996156788243434 0.3248311556288023 -0.00766465540414349 
7.24777969071784 1.8786509263260023 0.007515919172273074 
4.515538488150207 3.8106822955790918 0.0007977871611560319 
3.9956562517431102 0.9187057887020296 -0.0013328116467988787 
2.4894620076097174 0.4347811962622524 -0.004637634764180125 
2.2378160005575394 0.5414096729720003 -0.00933003400113926 
4.758403297350516 4.414987718541133 0.0022990570884587258 
4.0038582852921065 3.6287658530080753 0.0013161689023511334 
1.7522624590520275 1.2944206619097052 0.005427082552955286 
5.758062222195501 5.081134014740325 0.0010018155203434765 
5.511923832774711 2.3151463076046523 0.0030250072591663617 
1.2532699857024454 3.220439165813628 0.006708005613057978 
1.5008990702631275 3.397101575855056 -0.0007290867393279026 
2.5165185401406003 5.682197901399446 0.005504410796854537 
4.759387401919011 2.744775577173895 0.002307627450973263 
0.25344536681017144 0.7415743289472877 -0.003666558770276081 
3.256593893954517 3.5204170224579756 -0.007334887673799428 
7.004352643361055 4.361198479807377 0.0038102028341003027 
3.753659736764114 0.9092430329986262 -0.009755957892616782 
6.2638474065152145 5.489767457828238 0.0013292480312691046 
0.9979353471186272 2.087399543960467 0.003652268389712067 
2.01215335977985 2.3787354662785325 -0.007168417620328622 
7.023470130056043 4.169074302440632 0.003857110956917053 
6.510733678811163 0.9453092293555935 -0.0009182831024676913 
0.2421359403200378 2.722119345318881 0.004149157770482661 
2.4982139887048493 3.464530294241139 0.006373817956382206 
2.2563593441805803 3.98668189423928 0.0009444495511754174 
6.752074182832434 5.154796246127713 -0.004467101854959231 
4.994591006554602 3.8023142283158196 0.0018961983821983754 
2.4999827593511807 2.818204886585811 0.0034761146447255253 
4.008027419359904 3.67305969878187 -0.00022687350652809274 
2.2507401042926314 2.0489837313665675 -0.003765548799745658 
3.014931596989063 3.477006653932112 -0.0026832528080498485 
0.24995762755478262 0.003612331681317785 0.008783042610974418 
7.004864781024482 5.641083578933696 -0.007021458322876496 
5.246239509857245 4.976665493836362 0.002593965073388396 
0.25435304972735756 4.4751800581105 -0.008543747343764467 
2.007365474395414 1.0140668734881146 0.00142004264431355 
6.745356743085631 1.626746421859839 0.008938796516818347 
2.7438521668298517 5.232633894596296 0.002871345581140137 
3.249201364730005 3.783855534022581 0.002334505309768849 
1.7681898586742761 4.215767643178113 -0.0025008071924437665 
6.507767981645048 4.721496664312498 -3.367591186171823e-05 
6.753071888347232 3.3662906374584995 0.003943028722550579 
6.7573284946064485 5.153285027959876 0.0011680397924162334 
2.5113977127961853 5.176019765146175 0.0038376143947633336 
6.764152736066907 3.627308466909621 0.004356595184043277 
1.255879352497892 2.968165022055132 -0.0034102847146645484 
5.254657100890463 5.680976372494004 -0.002699672270581986 
4.0038582852921065 3.6287658530080753 0.0013161689023511334 
2.7477897140725305 3.0178700930203353 -0.0020790871355050875 
2.7495257398876576 2.7345455318720693 -0.004081637049881158 
2.764917076603424 2.1318116561816414 0.007925298218663668 
5.7544744066914735 4.000682236090482 0.008510364857940383 
3.511543436967426 5.057432627941462 0.002259507534171019 
1.5063927873348817 3.3409422117214573 -0.003873665598002629 
5.007892232407884 5.008798124300796 0.0019407941670647653 
3.2579306901587333 2.5596124885704072 -0.005607889578102671 
0.24854915360101223 3.294561758875427 -0.00996443060195798 
2.4966381362621157 3.6615008011077887 -0.003938449298800576 
1.7465228899592904 1.6725157332883924 -0.011811898483887967 
0.25483253750011353 5.576512781995217 -0.009623708126457055 
1.0101841298533634 3.3548824241226556 -0.012172188423119836 
1.7502976035765547 2.4614845476311134 0.0010085187415946025 
2.25539266160645 2.875370386686534 0.005071883005901716 
0.5160920452001324 2.6333088799273274 -0.009673464655169745 
3.509731851882498 0.30230040730452723 0.00014841951512533074 
5.009342524626971 0.41958391687995683 -0.0007551308430358872 
4.0038582852921065 3.6287658530080753 0.0013161689023511334 
4.998844122831512 2.5834834511107108 0.004309916421366646 
6.752940667024392 5.397083306215809 0.0008112977136467458 
4.502846797555068 5.1899338315618975 -0.0019284068314643155 
5.7645196989856355 1.8737907325298795 -0.004352022729336899 
1.4986597594557243 1.3977551516392277 0.003656087730367782 
0.007998015300074223 2.0680526225428855 -0.003905161388756313 
4.259466697184308 5.437958575247725 -0.0066749562390223255 
7.249004586438584 1.700014529119177 0.0008401960452246457 
0.7515021237938899 1.5138739829746004 -0.0006649675302745363 
5.9961163229481516 3.265563486838895 0.008813803657248565 
2.01215335977985 2.3787354662785325 -0.007168417620328622 
4.251365197505115 2.7715885497566926 0.00542071123658919 
0.506686184361541 0.07529119908519849 0.004749790426813017 
1.7649237517603293 4.408791922601335 0.009603007322215914 
6.506974997499712 3.8224417338710315 0.003613488918578427 
6.753071888347232 3.3662906374584995 0.003943028722550579 
3.2522831600165603 4.333227369211089 0.013970738706068075 
2.005920200777946 1.4393383818852934 -0.005063059088754342 
5.500014655658393 0.7661364034768537 -0.009334079388391588 
5.755914997143646 3.761783197322896 -0.004878761044098716 
4.503774157401658 2.442320347666719 -0.0015161509016645548 
2.0150195588017468 2.711232498160568 0.0010093374878193241 
1.2504440338144012 2.458964076382886 -0.0021129031719790067 
6.997948597635093 5.0239103563255965 -0.012860137619975736 
6.5063214680468375 2.911861050972819 0.009915172725570838 
5.756356562033647 2.541703221112852 0.009062893303316697 
1.2542422399203679 2.0770292490391853 -0.004340379000108467 
1.7604207757806163 2.1167872111565633 0.0007827756156438264 
0.7539514527232534 2.4077947365620296 -0.00681179970914974 
4.50187396294005 4.2409377342994095 0.0034060522095019086 
0.5091646442457033 3.707501372086114 -0.013269435603336321 
1.7520870155155988 3.6547413843028225 -0.0019269539943397663 
0.7625042103077807 4.22513100250913 0.004039838979445811 
3.011777812037094 0.0757062649627317 0.0010605094880899854 
1.4895437928100173 3.7954545798164094 0.003261827543107816 
4.252918512792411 5.404351418401324 0.011104795795243393 
3.502313389545158 0.932941103014929 -0.001566252272010509 
0.2570755249793388 2.5961644374084205 0.005131332589883924 
1.5081661893723708 3.517746625819267 -0.0005106348074123464 
7.255846812698443 3.378793153782343 0.007601144652539022 
2.7483241651077552 0.4923589174447649 0.003938657667258165 
1.7502976035765547 2.4614845476311134 0.0010085187415946025 
6.497196427925389 1.1118098702276487 0.0017882094945702747 
3.505957789195838 3.645634535585138 0.009992734476758133 
1.7553520959093993 3.3343147330781937 -0.00864537574925225 
3.7435991067651506 2.1851862699787112 0.0013375981283885005 
1.507574812727212 4.820750946434953 0.007014946485617721 
3.0004368813443034 1.5832015830589783 -0.013081298906855676 
7.002873348888292 4.382743704035024 -0.0028060936635329265 
6.0043760931820405 0.3581229474303989 -0.0018841710103023903 
1.2498178235458075 5.1171469573395845 -0.007130249757557621 
4.492382820928597 4.471800740911264 0.006416937438695814 
1.745345569222035 3.415787947921196 -0.007312605603197489 
7.003735429312577 2.988421907396038 -0.003701737197197592 
0.751039893774305 0.4740504491465757 0.0009418534264029992 
4.485465400310758 3.059618787205264 0.009427157531799485 
5.002311340531457 0.026584298270040444 0.0006373852151263049 
6.996877822451187 2.813198954151316 -0.004973910643676393 
7.249004586438584 1.700014529119177 0.0008401960452246457 
6.507699497787949 3.6942704001462943 -0.004117464833619808 
1.0127968966352652 2.116469603005424 0.011288731865343078 
6.267292170406538 4.62660962438767 -0.006617479280992125 
5.511478331113093 2.6865699120197353 -0.005980415413512724 
0.9979353471186272 2.087399543960467 0.003652268389712067 
6.5062933268364445 4.791386752195099 -0.012360596493991809 
6.260009497537144 1.6125796318256251 -0.006270668836903646 
5.5021663135969865 0.3345971989907029 0.0023206125424235355 
6.498432448308401 1.1303502580968947 0.01371855555412933 
1.9908065502905044 4.473033892963753 -0.004250839450642082 
1.2428786728954708 2.2878895038380382 0.0078866389241228 
0.24632765298681417 0.8300520736662429 -0.007245802608529995 
1.7522624590520275 1.2944206619097052 0.005427082552955286 
5.7645196989856355 1.8737907325298795 -0.004352022729336899 
0.5010517665285349 0.2297164109402949 -0.004448513607702992 
4.754427911617952 5.619944884815828 -0.0032290722943731595 
0.5042030104864488 5.036483038834562 -0.004475252887976887 
1.2464327179550374 1.794161135338452 -0.0005877402687183772 
1.494783562060306 2.2106960040113957 -0.0035218586059246925 
7.00492812667251 1.5069818608850163 0.00972756317716535 
3.0199462643155073 5.646645713664323 0.004321356330234738 
4.255905767126628 2.6059504575851085 0.00022073596709845807 
3.756056468234314 3.116189090539665 0.007965235808265522 
0.499918754623665 1.693459058735847 -0.0015641964755416446 
1.5008990702631275 3.397101575855056 -0.0007290867393279026 
1.0202248396854645 3.633909358873025 0.0003920295277521123 
4.997594698719931 3.7840124824237082 -0.00016111017558513357 
7.004118869027759 3.349987754728026 0.008662606517905578 
5.254657100890463 5.680976372494004 -0.002699672270581986 
2.2557226732909 3.5470232577740113 0.006180592271464936 
4.247819850826203 4.278990230593957 0.004695179480990955 
5.498994544539518 3.3691660779802763 0.005210157780375314 
0.24951666133968678 2.240515499956777 0.0025490171423404864 
2.4982139887048493 3.464530294241139 0.006373817956382206 
3.2679991968705093 1.3960202644221023 -0.004231845510006508 
3.505371076560681 0.13848507332921506 0.004066756782532789 
6.008850840172081 1.714515725032349 0.00037409274822815166 
6.508178082764461 0.4037012472430588 -0.0029641589434213278 
2.0063186565557474 2.427271927590201 0.0005081807751022005 
6.007019991193065 2.6949023263366145 -0.005671582230671702 
1.7578140177782067 2.5818046734455287 -0.009350061280868235 
0.5091646442457033 3.707501372086114 -0.013269435603336321 
3.494890387243167 1.6355772999099154 -0.006147477554596324 
7.002873348888292 4.382743704035024 -0.0028060936635329265 
2.007888232389146 3.9578071406795217 -0.008623256993646942 
3.009681188136182 4.106473914643482 0.009368776923368074 
2.254794289779136 2.6246862657979158 -0.0065413299122245305 
3.5073377140984667 3.0505839085627047 0.0004560264498974535 
6.5086924498909156 1.7997648864161473 -0.007286472301587686 
0.7512921626529029 3.173327518817574 0.007093540143292205 
5.242870664938477 3.122492513043514 0.0004579059058756745 
6.509727921306944 4.061229601411611 0.003262183613452397 
1.000534102289048 1.3314079236346354 -0.0006857509275216124 
5.993851444047911 5.235961128603544 0.004451847168628775 
4.246708988536126 5.24203260582681 0.010576310834283328 
7.017021185657173 3.9801519089948094 0.011602226371523555 
0.2437561400554462 4.233964890975665 0.008739568224832293 
4.760025408300546 0.6218569523034096 0.004352116886823279 
0.5095174444893372 1.3762041084778813 0.006349368242917397 
5.757620554445419 4.896621904354749 0.003922588229439817 
1.2415203299435578 0.26848790276764045 -0.0012564556297043168 
2.5080418472705355 2.1683619882829723 -0.0003430789930628248 
4.250803833032756 5.6900502809015565 -0.003230217505191575 
2.7495257398876576 2.7345455318720693 -0.004081637049881158 
6.756953049534685 4.944071938374731 0.01188939692426019 
4.500354026115939 0.5084381571908461 -0.007002484955855001 
2.2563593441805803 3.98668189423928 0.0009444495511754174 
6.497196427925389 1.1118098702276487 0.0017882094945702747 
3.754536894268846 4.038517788946226 -0.001505765192183096 
3.0048371615843457 5.426756561351873 0.004973736061814174 
6.752074182832434 5.154796246127713 -0.004467101854959231 
2.7612425703889136 3.9521983980484108 -0.0006423950318249494 
5.001094989170393 0.08435670213044485 0.0007047849824587612 
0.5090644012955499 1.3679286312892338 0.011732403772142266 
6.5063214680468375 2.911861050972819 0.009915172725570838 
3.743540536968686 2.8229417336755582 -0.0026575477139712 
6.010461592894408 0.12178619953429284 0.0024505599333455278 
4.002995165837038 5.16573591509967 0.0005978293009047795 
0.5044478190957464 5.030004753097572 -0.0026728374421159592 
7.006838556040499 1.8674358727013678 0.00016940110069143264 
0.7515021237938899 1.5138739829746004 -0.0006649675302745363 
1.2464327179550374 1.794161135338452 -0.0005877402687183772 
6.757732058925476 0.3063962191019354 -0.00015621845110391764 
4.758165759801128 4.2889432483101455 -0.012441686078478823 
4.002142539482913 2.342950253174639 -0.0030356592662800753 
0.7522340302477677 1.091913196361993 0.0015744955341267064 
4.758165759801128 4.2889432483101455 -0.012441686078478823 
2.4982139887048493 3.464530294241139 0.006373817956382206 
6.009662148892872 0.18223221422770097 -0.0013859791730022166 
5.503334292350873 4.03297415696302 -0.002372972575308811 
4.998844122831512 2.5834834511107108 0.004309916421366646 
4.759855623773806 4.999059478042638 0.003986404049871176 
6.754041196400902 1.9489373564255579 0.004611304448120347 
3.2578347497033144 2.7606306131643383 0.0035535575991591565 
3.5032588444489323 0.029092743360661363 -0.00113069780616523 
4.762377946653444 4.09454171477485 8.698556629229987e-05 
6.510733678811163 0.9453092293555935 -0.0009182831024676913 
6.258662703281754 4.260926799007688 0.005665063422269711 
1.4895437928100173 3.7954545798164094 0.003261827543107816 
0.006544139113813883 5.640507975163111 0.013250807687223299 
0.25248148134271603 5.085673061366485 0.004594228915632767 
1.0127968966352652 2.116469603005424 0.011288731865343078 
5.259868231789404 4.900192371622661 -0.008828473574170893 
0.5090644012955499 1.3679286312892338 0.011732403772142266 
0.2520905356678234 1.688492451213301 -0.0003053386539364408 
0.24473579680910804 0.6899961886743555 0.00985870732544547 
6.5063214680468375 2.911861050972819 0.009915172725570838 
6.7563041593303605 5.101975257682291 0.008884728711463945 
0.7620181712656793 5.038413218285936 0.011987042233622874 
5.9961163229481516 3.265563486838895 0.008813803657248565 
6.755954220753005 2.1242525783313018 0.007570391297481926 
3.0041465451470115 2.4429884990054243 -0.0016502664682082448 
4.999255022222157 3.5173769541195585 0.001485610893766575 
2.991978107992767 2.79177281694841 0.004398248851654121 
5.259272420115461 4.663572636399965 0.010314564210498414 
3.2556968375678794 4.711758041837127 0.0019335802685483106 
2.9913601540712076 3.3525225794925686 -0.007249308547722554 
0.5010517665285349 0.2297164109402949 -0.004448513607702992 
4.997172425660526 4.8216594556949035 0.001783636684828205 
0.5062103295087994 1.4970527896198909 -0.0010802730059578187 
5.0049022050174194 2.0115209464873125 0.004128776307560663 
2.0031801078864775 2.9863156235414476 0.004365048364383617 
3.4922468199100076 5.315860463945393 0.0030437996244256226 
7.256584995551715 3.2798879260655567 -0.004800284524934218 
1.7604207757806163 2.1167872111565633 0.0007827756156438264 
5.248893985957429 5.008415646521157 0.015783925689245144 
7.010293350350314 3.3844315760972092 -0.005090714212282907 
6.243938198342477 5.383093775292342 -0.0032800188220803083 
2.7449809553939315 0.8137601516998659 -0.0073440318646361274 
6.754041196400902 1.9489373564255579 0.004611304448120347 
0.24473579680910804 0.6899961886743555 0.00985870732544547 
6.747508545463128 3.44599566980668 0.004773339633924964 
2.0010395174942293 5.530672619549888 0.0007283850710768255 
6.993152672044341 2.830397166618172 -0.0004825799976130333 
5.248893985957429 5.008415646521157 0.015783925689245144 
0.4973279888312216 2.9729634444506767 0.003911774987822372 
6.497196427925389 1.1118098702276487 0.0017882094945702747 
6.255163396430161 2.585040614304033 0.0031369165537588808 
1.0039241177091422 0.3866236565840543 -0.004207418232373635 
3.750682316861621 0.6103734577853906 -0.005107158176881692 
4.491525094677419 4.409875903278213 -0.00011979351789911008 
1.255805651290117 0.954221718437134 0.006356333897054089 
1.7522624590520275 1.2944206619097052 0.005427082552955286 
1.2525134356047791 1.9027251434398151 0.0002970189901175717 
7.001551967375919 3.531147862602328 0.0023860518570426436 
4.99799109060478 3.3315182371204015 0.006570211731894419 
1.7571049762659392 0.6517701332449212 0.006438989190103521 
-0.0056447743112251324 3.7720892882059727 -9.775693824570948e-05 
6.0043760931820405 0.3581229474303989 -0.0018841710103023903 
0.5103937085307603 2.866578344191952 -0.004948183813467482 
6.75626774889943 0.9998765516242445 0.000572052818380154 
6.9969382386445185 4.008147810014075 0.0006870367803649075 
6.766928751902524 4.873032053015821 0.003549255893630729 
5.509279197478857 3.770305206174623 -0.00022647862295260254 
5.2553021423639885 5.1704443867939975 -0.0022549340489579277 
3.494890387243167 1.6355772999099154 -0.006147477554596324 
1.7419804928345484 3.137431884753765 0.000930556647274098 
3.2478646531441178 2.8802342756075543 0.0017746809408019037 
6.0067971222744925 0.020629050011029847 0.016163559484719956 
2.258858863787443 5.0631801519254065 -0.004480769036808729 
5.2481871047902535 0.1330117151188129 0.004340031533986375 
1.5045879657477248 2.342765881030652 0.00582849908191413 
6.759239528284018 1.4585409224086745 0.0055235394175891 
4.749190174679714 3.715399071624778 0.003827330312851125 
7.245514744599559 4.238546603900904 0.01271586575796392 
0.5027964298390047 1.278984333724544 -0.005930765536698427 
1.0013583207419514 1.9689380481793455 0.003183353325387701 
0.2535329650340884 4.19668883022561 -0.0009182566294901451 
4.2498375904108325 2.2565848778958157 -0.0014409495430016944 
2.757396553816618 5.304297976658103 -0.00028047562640798145 
3.0097038574427075 3.57687003391714 0.010624407706001298 
6.764152736066907 3.627308466909621 0.004356595184043277 
1.7604207757806163 2.1167872111565633 0.0007827756156438264 
2.502187682270389 5.144694032623779 -0.0002483981129627062 
4.997594698719931 3.7840124824237082 -0.00016111017558513357 
5.506323198225278 4.872085302898189 -0.0038514661519991615 
4.502507773986038 0.4309069717395174 0.0077672130021396515 
6.509623738493139 1.2465937308032844 -0.011093733341100214 
4.00583376725362 2.9008877840118146 0.010059819385508706 
2.2424406509924877 2.077499277684545 0.007648125813886086 
5.253736386197944 1.1417668302239812 -0.0011825509495934302 
3.5153169712144883 4.471590667956902 0.0062905206332057265 
5.510195028594793 4.903098906577378 0.0002467741825295999 
0.004797028221398714 0.4629000878156451 -0.005353303287342213 
4.749330570301594 3.485696562568268 0.0005799442183884802 
5.259272420115461 4.663572636399965 0.010314564210498414 
1.498623977904873 1.363864019862297 -7.682703881008168e-05 
5.003573141799725 0.21183625944738196 -0.006474086235299524 
7.010717744380008 3.127597221089838 0.013337492528451046 
4.0042449937315965 2.008678769585821 0.0038981071383074914 
6.494777310188891 1.3690778784661202 -0.0032385828329410705 
5.509829531761344 4.356010586488953 -0.005595373954476166 
3.9969465837344007 5.405057073554678 -0.008052802341206762 
5.746941583787655 5.367645251120358 -0.008017972869127808 
4.759855623773806 4.999059478042638 0.003986404049871176 
2.5111763598578376 3.681693130904878 -0.0038770194138129793 
5.74866821764691 3.5965179820987343 -0.0009538560757292544 
3.9980414233014003 5.659182488375179 0.0036833331851549044 
2.757396553816618 5.304297976658103 -0.00028047562640798145 
2.7526563093275986 2.0384809872903813 0.004637482983272416 
2.000951737920868 3.9888321602116146 0.000683355338777376 
1.2498178235458075 5.1171469573395845 -0.007130249757557621 
3.006140251328136 3.108684218919795 0.011768123474836089 
7.004864781024482 5.641083578933696 -0.007021458322876496 
5.0065798044874565 3.31648555828215 -0.00864991167224273 
6.753687957450073 1.010045779224061 -0.0017564596565705815 
0.5009799509212886 1.348504335734686 -0.005905920334725637 
4.994356870045752 0.6143582347864319 -0.00978976762863704 
6.764152736066907 3.627308466909621 0.004356595184043277 
6.5062933268364445 4.791386752195099 -0.012360596493991809 
2.498329770524303 5.553045894774158 -0.01346154102291178 
5.006753922026501 2.3642064927115105 0.0012286124695630185 
3.7546319910431523 3.4404897812527206 0.00012240755363619477 
2.258858863787443 5.0631801519254065 -0.004480769036808729 
2.5043863653514977 5.293600751773836 -0.0016798301760799948 
3.008680127486752 0.6320442602806302 -0.0034631700705274856 
6.003346380565083 0.2322789397225135 -0.0010676265409081066 
3.2547939807687416 5.624590422340987 0.00043788368755270706 
6.246696645831298 3.744470747594224 0.0007178900772446433 
4.000801482361202 1.1776339659048303 0.0014087555835911461 
4.999255022222157 3.5173769541195585 0.001485610893766575 
1.257970778405665 3.6872877709667256 0.0011203245704557662 
3.0068230232110835 3.4299299509099725 -0.0022106938447033703 
3.5030040420008075 2.0964752265045528 0.005351899329049031 
3.5073377140984667 3.0505839085627047 0.0004560264498974535 
6.2478530753094645 4.282107673501199 -0.001084473623783036 
5.5010182752409005 5.118931316324474 -0.0027624261055088505 
4.002542688389244 0.07605123716750471 0.008392195650625864 
5.7465672812601225 5.33171801508141 -0.013240251669960321 
7.009259014700747 4.659650924499066 0.0011515675811305131 
0.5079399850828343 4.271226578681132 -0.011283939577083457 
7.003424778645363 5.176257169059548 0.0010833155405953242 
5.751216984421926 5.37380804791733 0.0060387413407352744 
0.9979353471186272 2.087399543960467 0.003652268389712067 
1.9990266673525814 4.3130907727881675 -0.0026671596118040715 
1.74782300845574 4.648344863575988 0.0010602918262192845 
6.2564682839010874 4.657240697892767 0.008050809393028407 
0.24360928285719743 1.6813031806075311 0.0006832255202288965 
3.0068230232110835 3.4299299509099725 -0.0022106938447033703 
0.7489606199582457 1.0404548633767898 0.002808049136047476 
2.0031801078864775 2.9863156235414476 0.004365048364383617 
4.005755753453332 3.4652161676397246 0.0006027410102725488 
6.267292170406538 4.62660962438767 -0.006617479280992125 
6.993152672044341 2.830397166618172 -0.0004825799976130333 
0.004466076978409116 4.610469505356359 -0.0012475236712096477 
2.508271735308432 0.41945528590281206 -0.0096668715505275 
3.5011337218331353 0.46795433064153985 -0.008909045563923006 
3.5079664684606207 1.5291897745758098 0.005207701278143894 
1.514318822156886 0.562825196695187 0.0003065898374807873 
0.2506264115877383 0.3083719923708241 -0.005752319824554984 
5.759383720367168 3.9496162471395935 -0.001296524929949777 
3.0017173434663533 3.174018202315505 0.002190602032507438 
2.7475385611850514 3.052641105445301 -0.01015124085811668 
1.7419804928345484 3.137431884753765 0.000930556647274098 
3.505496432133405 5.216187413759863 -0.005155915855555242 
5.506323198225278 4.872085302898189 -0.0038514661519991615 
6.509623738493139 1.2465937308032844 -0.011093733341100214 
6.505901545787831 2.2222646775332864 -0.005224365680807902 
1.50335605687244 1.7301492171128723 0.014523060430984409 
0.5095174444893372 1.3762041084778813 0.006349368242917397 
5.752906751213987 4.593649437929615 -0.0071055270453361085 
5.5007163144743 5.365810037131272 7.01070772052844e-05 
1.257970778405665 3.6872877709667256 0.0011203245704557662 
4.5056960204615715 3.1990486712095545 -0.004961565491165134 
3.4938743794314764 4.459641503820634 0.0031067752676967545 
0.755635314525248 0.8959825452787509 -0.007352359729765049 
2.756915732874896 2.3428177772169847 -0.002252294705593846 
4.502560091844074 1.0151859784585084 0.004374989981359718 
3.506367268865585 2.5882351052631103 3.952566141997554e-05 
-0.0016537494120326159 5.3015556297128565 0.003540262317917048 
4.760025408300546 0.6218569523034096 0.004352116886823279 
3.7561537672673464 0.6419853839925688 0.006940522731722508 
0.9961654227065364 1.238339955295209 0.004049126455037783 
7.253513930067532 0.4008969828127839 0.0055169249811185634 
5.260070347414312 5.566113341846756 0.0054824753508046255 
4.998844122831512 2.5834834511107108 0.004309916421366646 
4.252614278732388 1.730629630527976 -0.007393454319169551 
0.26312889938011064 5.315268269179057 -0.002554219828175117 
3.5011337218331353 0.46795433064153985 -0.008909045563923006 
6.756196137331877 2.0189691204433933 0.0030143416498238304 
3.502313389545158 0.932941103014929 -0.001566252272010509 
5.259079301688208 0.5002321461296959 -0.002837034832666581 
1.5006072952005445 0.5934258196101935 -0.0014304611389903887 
2.260699420551969 0.7243206202976182 -0.007746181843438686 
3.247448883242304 4.976352018159848 -0.0070193550761803655 
6.751384597869236 0.41344429964799695 0.005926278504409661 
2.2591045361045783 4.539681455706849 0.0032756718244536707 
4.012976792924099 3.9539588221677655 -0.001123735889085683 
1.7456741240645723 3.7527509587098367 0.005768075056430123 
3.9927953922965966 3.999203963607919 0.00018601428099462554 
1.5008990702631275 3.397101575855056 -0.0007290867393279026 
0.504788523643589 4.4389704631458535 0.005687290892510949 
0.7539514527232534 2.4077947365620296 -0.00681179970914974 
6.503036319881756 3.487049992873286 0.0022093546694431686 
5.757620554445419 4.896621904354749 0.003922588229439817 
1.5006072952005445 0.5934258196101935 -0.0014304611389903887 
7.255018517705158 4.3128820070205816 -0.0015872076410547889 
3.2450115346438726 5.052892402308834 -0.0027561656283650805 
2.4985084732093665 2.846198075235717 0.0036215701744245635 
6.764152736066907 3.627308466909621 0.004356595184043277 
0.5044478190957464 5.030004753097572 -0.0026728374421159592 
6.003346380565083 0.2322789397225135 -0.0010676265409081066 
5.260798738794598 0.8832729241156723 -0.004586218300055282 
0.26312889938011064 5.315268269179057 -0.002554219828175117 
5.004595609946778 2.032889902221598 -0.0016220499498441785 
0.0055619076243835315 3.685717870233881 0.003780670411708684 
4.758384272210351 3.5259199125841882 -0.016389260081914832 
4.249296285080212 2.329753471440872 -0.012296039907877915 
0.505812255424566 1.2784101675394315 0.008672041516692926 
1.9972515765483216 0.15023531342707538 3.8131778104409306e-06 
4.499147380033338 5.1928047996371705 -0.002086260792777052 
1.0023310365712272 5.147936725772028 0.0021256413294043963 
5.51114073688036 4.871457287781122 0.005086286281259582 
3.4923058919937597 0.5007333216879657 0.004699261614791256 
5.00982499294078 4.71924295966816 -0.00452961511624473 
2.753031497099065 3.4284173910248392 0.015391507077542662 
1.5027262483152721 4.886831220722251 -0.0019486371254697483 
3.506367268865585 2.5882351052631103 3.952566141997554e-05 
4.0134754766830865 2.049194854336108 0.0043548960837522695 
