3.25622425677669 2.854794804541159 1.5397186701548913 
5.251186950717078 2.849373200210123 1.525108959697241 
6.24997674766727 0.64851409901779 0.33578841830325545 
3.006622754359862 0.4379736555106292 0.22802308819768394 
6.4956205634722695 0.698278353935053 0.36842376437465035 
1.001490143915998 2.212649726688676 1.181496230005148 
4.497711942180771 4.507208171839406 1.3215905386015971 
3.5045251533557966 0.14162550578596708 0.07603955254685517 
6.260391665637195 3.002735416547923 1.6257716517319831 
3.752841632788719 0.731088079501285 0.3773860688055116 
2.499722060678327 3.7248954774403877 1.7453377115513744 
2.74480811794178 0.8401822398170454 0.44098905332613947 
0.7478433453196205 1.4142447787455572 0.7563132263681855 
5.754234520471537 4.326788388535844 1.4179576311192699 
0.756269764127742 2.855977168757474 1.5398201491932235 
3.7537543903724644 0.7226312632952151 0.3750173426705494 
2.253978158300579 3.4496358882868003 1.880235913336873 
5.262810821634617 2.0579555422204945 1.1016820854602944 
2.004361389936791 3.9523924141074342 1.6169103168424563 
2.004948525942784 2.5278155458594767 1.3718531943750674 
0.7498151302999578 4.26090660028955 1.4486150967031717 
6.493769572678636 0.084247893228072 0.03183179366056677 
1.755124243421473 4.218158391843604 1.4749737698858294 
3.499229362996443 4.626109045515861 1.326691274006579 
1.760673349343112 2.18250644188495 1.174448999204897 
6.505888738774798 0.20101093749910523 0.0983203268921325 
2.499722060678327 3.7248954774403877 1.7453377115513744 
5.24998685997964 0.702328174310571 0.36757086361833996 
4.248101595330468 0.04749347554238354 0.010857034478920686 
2.005011926495349 2.540968231926163 1.3795889536637131 
0.49334708902111474 0.13812914954634403 0.0754270369342054 
6.50035514141486 2.7095596473644394 1.457580873224933 
4.5019200982411105 0.06621112840124825 0.025849140359939845 
3.0039770129543264 4.172961784083033 1.495459467402378 
1.512259915875256 1.0353430623520028 0.5485790400199004 
5.2547699084616095 1.0260864969644423 0.5469526066243316 
5.748209001854118 0.7930799398228472 0.4146105562408024 
5.001698886404189 2.4318647051890214 1.3083391589492643 
5.508748577798994 3.3608369586532043 1.8245324818739423 
0.0184815425312821 4.310616688567012 1.4359140785630842 
3.494631538168919 2.135340492017465 1.1470905291164564 
4.247705541019469 3.7808931316271592 1.7100781610479132 
4.757533980824497 2.7603168686083186 1.47896911319222 
4.262209245266071 1.5318077646137953 0.820639786691474 
5.498905614189224 2.0354961358533874 1.0841759104326794 
4.987368414898317 2.553536230430445 1.3757985170720846 
5.503757519311104 0.09569710208671749 0.033082703425743445 
5.994300914309135 3.7385708781916036 1.7227956112056275 
3.2634957385250165 3.1952805720545023 1.7182682928368156 
4.245140183894986 2.927653521891063 1.5828501803967934 
2.003022870359947 2.3214137867860516 1.2592047644489592 
2.4929635797064176 0.9617413405818372 0.5053652305670593 
5.503419971588234 0.4542793426205082 0.23866586378138183 
0.758535000392678 0.7433074574779511 0.3879246667262861 
1.0019448929375478 3.1606830772656864 1.710751905605444 
3.765585747102559 3.197629866988848 1.7195154988361319 
5.991138081023594 1.3035766831362112 0.6907334120690108 
4.016242386525236 3.9565918794376653 1.6166277287431767 
6.503447516429182 0.9851713115521489 0.5314821941311693 
3.756767529745409 0.011011987069483215 0.06887985806618856 
6.260391665637195 3.002735416547923 1.6257716517319831 
2.0035810937456335 0.9833241783386549 0.5188376470764573 
0.7531222783748546 4.213195638194601 1.4791312000405343 
4.252835840180065 1.372887206855104 0.7292584442516286 
3.7502906771202227 1.0260333110598094 0.5474001032609733 
2.4958365810221994 1.9312084738381436 1.0471576334168986 
1.9966617094607688 0.048757188480846134 0.020110597043045464 
5.0221680961865784 3.124209567662898 1.6802076775904016 
3.0035027313984384 1.927291253342453 1.0372884585691071 
2.504136148273204 0.6037796341846825 0.3126079066081059 
1.7538183742071436 2.3357432844020516 1.2478666473748337 
4.510802297968655 3.7484218356859564 1.7274477261492112 
0.5053259225916774 2.8695046613476296 1.5296963779051411 
4.505912818655384 3.509198073490603 1.8915228409787617 
1.2561912563705122 3.7430647930763192 1.724950526059859 
4.254547609909285 0.1559276388428 0.08075430490189785 
3.515521233161825 1.756903784628932 0.9449778897230308 
2.7502956238078484 1.4849812457490312 0.7966935233005322 
5.755665603846387 1.3781179435195416 0.7484758917195523 
5.499300499775526 1.3786367793691694 0.7421287047254248 
6.506759006741041 0.8745365016303103 0.4664662452460129 
0.9959901611650613 0.636533813843249 0.32982888313855174 
2.0035810937456335 0.9833241783386549 0.5188376470764573 
2.7600612625083425 0.3164447973477098 0.1557446805355602 
4.262031500475075 2.3573395245082964 1.262913408008057 
0.9975871203501573 0.6746919545152429 0.35722921987238965 
0.5073219749209789 2.6317008248642924 1.4246405747749038 
0.7510289890962017 1.8175969194698618 0.9752071486383926 
1.008474254538453 1.6521246512201082 0.8818026589490141 
3.0128676589565506 4.596046066945789 1.2690370476380894 
3.507343620932243 2.7525357774235695 1.4795219118816945 
4.757533980824497 2.7603168686083186 1.47896911319222 
0.007389588344037607 2.6807705605780217 1.4314281581964143 
6.246429538077446 4.074617073251151 1.5505037035789315 
3.991745607158378 0.7559306805514715 0.40178473353190136 
3.2599965827051283 2.5798042470658364 1.3783751101684671 
1.4983061135419964 3.5764082423101597 1.8146781723290362 
5.998497807323158 2.107895542807827 1.1238401061265766 
4.754864606183212 1.013579791905518 0.5369263084318298 
5.508748577798994 3.3608369586532043 1.8245324818739423 
3.0035027313984384 1.927291253342453 1.0372884585691071 
4.764177527088774 1.2545446058446048 0.6620950666456523 
2.764299315794243 4.417669476517995 1.364430024084114 
4.255995018618996 2.7017474593118087 1.4510130858394268 
6.003907688947706 2.0070065077142494 1.0780105371392803 
4.246247835633494 3.967045547927234 1.6163325949199734 
2.252156601491702 4.465613189244538 1.3347297175524313 
3.7560466044348524 2.0115277689056166 1.079052190071986 
4.997300994838867 4.509205880290228 1.3224126324359768 
3.503942398841751 1.640397322645482 0.875770407070167 
0.25760678654717245 3.8559467391550672 1.6606313778882107 
6.002614039334239 4.2527293144717 1.4497962181931636 
3.26156582502813 4.115932608242671 1.5320696510645815 
2.7475211371454127 1.0586084642343063 0.5767496467598179 
5.510684104456836 0.9369874578433396 0.4951747791984231 
6.2508767756725625 0.27321327119504346 0.12921172476690876 
4.756609673208292 2.162323635239325 1.151955528333463 
3.744703699117676 0.5137562669835073 0.2667991331110696 
2.512533463453621 3.5437018653203105 1.891526761583924 
3.2580152333069403 1.1589208650953027 0.6247501361592722 
3.5045884613828546 0.40607829087601366 0.21362429763715132 
5.000046125636061 1.9790604848120377 1.068005198848131 
4.50418576854137 2.998715346394824 1.6185567093422335 
6.501890044367986 0.22431801870666873 0.11341930562109971 
0.9975871203501573 0.6746919545152429 0.35722921987238965 
0.007389588344037607 2.6807705605780217 1.4314281581964143 
3.9958294706311834 0.43763020251710427 0.23404517084955953 
2.745061960813924 0.3891265379532506 0.2058391878944636 
0.25084465600019024 1.8847085820550098 1.0112842789821137 
6.254438076258434 2.748024081627398 1.475873861813439 
2.502552975762623 0.060508877379032995 0.017435969428922844 
0.2370528569690175 1.8433776676356266 0.977409413560473 
4.7512905632409606 3.60097340571777 1.812465236664921 
5.506215742134566 3.015413472990355 1.6177612900425498 
3.7558857917058868 0.969290176219439 0.5062517873224514 
4.249331660820974 1.673399410645976 0.9019441517254166 
0.24921462286320187 0.4596336858071961 0.23274374636398676 
4.762185292264386 2.769947830486323 1.4969279129320494 
2.002961344739824 4.440642886010698 1.3515202064161074 
3.752841632788719 0.731088079501285 0.3773860688055116 
1.2514710918763452 3.9425102349512193 1.6267236139164696 
6.259709914767207 0.015473781624035728 0.07018418377161535 
6.0073024026031705 3.634594917438696 1.7935367037382457 
4.2530065062396645 2.6044445458571173 1.4004945741950658 
4.764253555503671 0.11334503344438682 0.05324129885072337 
0.003592272354728898 2.9566823016973967 1.5912478640528223 
5.743186923581549 0.0887499749348937 0.038782892136523556 
3.2519832473725936 0.8139492199764209 0.43781952731253404 
1.2588664610308706 1.306648215481215 0.7032141450112602 
3.5159379929287087 3.888823003038143 1.638757336304506 
0.23317990918456388 1.416415874335823 0.7465552838941665 
0.24735554423014441 1.7180190329489147 0.9202191076625983 
0.4989926633594953 0.7179517956646183 0.38579105681213266 
1.0020521122757307 1.2300456443447447 0.653486876267384 
3.00066671407931 2.02902871327988 1.0913962973067224 
0.5089680565882705 1.197195049388557 0.6468020594452393 
1.756007525105785 3.3116552829259063 1.7923599410470032 
2.754537366448409 4.459264123107193 1.3379530787273315 
4.496605150941906 2.3540874969669625 1.2697547084795389 
3.502647620533429 1.4270476370845027 0.7558367317617067 
4.500778185954739 2.5686454653784887 1.3856045814962532 
0.7571796231387715 3.265702505479553 1.765733272024787 
3.759899334741942 3.3564095425354736 1.8014185522165174 
4.4866658898434215 3.8504111362428723 1.6682178109337924 
6.253755651489581 0.2904807945962419 0.14919138025762266 
3.515908141579347 3.8769670182496476 1.6649370590036923 
1.0057706920666485 4.576719062618849 1.287875502325989 
6.243828804256207 2.5618937546065874 1.3774027723624522 
4.248101595330468 0.04749347554238354 0.010857034478920686 
5.497859107821092 1.4034700964497575 0.760801172402999 
2.505405534227791 3.2660725908314174 1.7556406101085589 
6.000903681216024 2.720261014161874 1.4615430320596356 
1.760673349343112 2.18250644188495 1.174448999204897 
0.0038980860301073717 1.7705668930596699 0.9500002335970793 
1.4967523219746557 0.5329721935481234 0.2933282344926936 
4.994829792292885 3.5824025148204934 1.8085103136697183 
4.501139643368749 1.3682129942051715 0.7310094301783037 
0.744459076348944 0.14064677988449004 0.06782901186440818 
0.25502695449601887 0.3149995079391583 0.15746834255321873 
1.9979481939540829 1.8857850083773742 1.0100630945147686 
3.996784443035658 4.117409782326761 1.529543745186542 
1.7486571008437104 1.3755244671136653 0.7445243469331237 
0.7642471399608728 3.351796336368198 1.808799864969496 
5.507711648591167 2.3285380783925604 1.259391964869134 
1.747392075121629 1.8289101269618546 0.9697150982705803 
3.5006041276957425 1.3489731766562347 0.7169223621525639 
0.7542803645344274 2.5737232905325733 1.3835181821214517 
5.497804526477896 2.659722385035122 1.4276641551082434 
1.497346205865431 2.3607691028272955 1.2786213304812253 
4.50138402240414 3.93984880109248 1.6314274552968753 
4.254240875084012 2.4417305705989834 1.309337734411053 
3.5075800709048273 0.915837598972939 0.486971781664578 
3.257130402587694 0.580675811175139 0.30915466164136973 
6.010756921136569 4.229217580306431 1.4607758297940958 
-0.005544336504296922 2.6363054763301474 1.4169682504777303 
4.26090826371819 1.0516444484120786 0.5442133043061911 
4.2530065062396645 2.6044445458571173 1.4004945741950658 
3.499049147774634 3.8256316995136888 1.6937668261572079 
6.001932498773937 3.255186301486851 1.759922059544388 
6.256371343165764 3.6693779324188815 1.7740468129963354 
6.006497800422585 0.36914328976137334 0.19033213736581855 
5.01802606002126 4.229721307828706 1.475719931340036 
4.25186734405319 1.9102148320766958 1.018175062825094 
4.500286783594938 2.3626662395075315 1.2646634760026407 
2.2591296065425412 3.85780765462673 1.6640762199656634 
5.755697700255539 1.1775443385179616 0.6218236879843178 
5.767910675605943 4.144720840039207 1.5196747857306527 
4.2461849940084715 2.6948338871215722 1.4506521783157493 
2.7475211371454127 1.0586084642343063 0.5767496467598179 
3.266283799243 3.8099069226435294 1.6917800931129687 
0.25188402896301015 1.2968927978726774 0.6945647796217319 
2.251368599720621 1.2257825032214138 0.6573704042416422 
3.9916422590113627 3.2357990626504667 1.7492048021799427 
4.008748303370035 1.9296631896825145 1.0266638819098248 
1.2502052434063617 0.19111286253235185 0.09279732587690025 
2.2480432075193515 3.5444739902043234 1.8776411110460367 
5.262409883330865 2.2923219610944434 1.2239328503829925 
3.7547525757974496 0.8097869792556266 0.43160858029221016 
5.504783050371119 3.4691345884319724 1.8744674879985854 
5.741933553115341 1.1166338265833564 0.5928601880625879 
3.759899334741942 3.3564095425354736 1.8014185522165174 
1.760673349343112 2.18250644188495 1.174448999204897 
0.4969477192836166 2.520109780380624 1.3468919477175085 
2.0053566499708992 2.9981675773346788 1.6121214559678578 
6.511243053607049 4.45889566890794 1.3436497136335683 
6.260391665637195 3.002735416547923 1.6257716517319831 
2.504136148273204 0.6037796341846825 0.3126079066081059 
1.2566043191160392 1.7350687842081627 0.929036762584847 
6.504738740088951 2.0452715382514994 1.1045748592212892 
1.0090932099418217 3.696019885354158 1.7505209623385216 
6.006497800422585 0.36914328976137334 0.19033213736581855 
3.257945246840417 4.000050189487556 1.575137001365739 
4.254569097551245 3.4985254996306687 1.875093958508436 
1.2529601220147166 2.372824546629469 1.2687917728933744 
1.4953350112926342 0.15907500751391887 0.08301733413244859 
3.757396570336917 2.215369619665429 1.1863248832288185 
2.246135798878334 1.6223252066805132 0.8633404115976129 
5.764456396448773 4.359154177494176 1.405783942530609 
6.253287171021536 2.643518486488052 1.4190786744109285 
5.501011012271769 2.6239313459503455 1.4239131064655108 
6.010236788579124 2.295405574248403 1.2266896311345756 
2.7485520235145673 4.416912146218167 1.3538949782193137 
2.2505743084425536 1.1421053911354615 0.6072714563528449 
3.010585343261661 0.7716564191326114 0.40908051670857876 
1.5058978748856302 2.872579021978327 1.5592764532837482 
1.2588664610308706 1.306648215481215 0.7032141450112602 
0.011614808195498098 0.7486709285979162 0.40325464668657257 
6.005028416464659 4.034144485396944 1.578301493035837 
5.510684104456836 0.9369874578433396 0.4951747791984231 
0.00683858626020141 3.2505942120632203 1.747270824036177 
3.2433692184265963 4.079085343050342 1.547613458101034 
2.008834543805875 4.405737619474178 1.365306331724192 
6.001063999360405 0.4471480659767114 0.24058085221474454 
3.2634957385250165 3.1952805720545023 1.7182682928368156 
6.248806914855975 3.3922798660677005 1.8806255368912477 
3.5045884613828546 0.40607829087601366 0.21362429763715132 
1.7603979691188651 3.8571697089290007 1.6728276009393181 
1.75149139231752 4.402947690582583 1.3690854364048892 
5.009951427405315 3.482920424237242 1.8889974538180672 
4.244974526809812 1.175904380701938 0.6336276912508484 
4.25664112839788 0.6504934798544435 0.3435138385119989 
2.2541184492530735 2.1352022123972363 1.1539670180678436 
2.753448659732053 1.3475620634002492 0.725215783786809 
2.257380405657582 3.195110881197723 1.715479295349772 
6.501890044367986 0.22431801870666873 0.11341930562109971 
3.745948639778825 0.2534301830499917 0.1420197548662583 
3.5035408545307307 0.029482014751803138 -0.002325920847447702 
3.014831126675456 3.4285458760639003 1.8749313832236316 
3.009582427015329 1.709471164142748 0.9297930749873712 
5.760131237811967 3.5306735114837635 1.8882250808219243 
4.498322364593434 1.9946360340390468 1.0748353520853176 
1.0188345529966298 2.7390811306260208 1.4728986526151366 
4.505905732671713 0.4293630343722605 0.2204881625829031 
3.2496678466027396 4.480889777603107 1.330062023158512 
4.757533980824497 2.7603168686083186 1.47896911319222 
2.0084531949539772 4.5997587014472545 1.2549076983507983 
1.2564407937656117 2.205958981834775 1.1970434364727185 
4.756250210383904 2.5962906462588786 1.4026041170534762 
3.7555437442771415 2.5736726608722966 1.38381552255524 
2.9957487230356152 0.6101432299998997 0.32449480499309863 
0.2500155316080036 0.19197711195844228 0.09092787760793118 
6.2644588426954115 4.020387075073043 1.571239851763527 
1.498550026592402 2.4261241947915066 1.3047674955034771 
2.7530142783268663 2.6521284129804448 1.422372970469258 
3.26156582502813 4.115932608242671 1.5320696510645815 
3.2532491230070786 0.4361681474533887 0.22800541463180016 
2.5097524117214856 3.9034932786157386 1.6413525245676637 
3.5075800709048273 0.915837598972939 0.486971781664578 
3.2607362636623605 3.5302641045272987 1.8764525955913904 
0.006315036072550642 3.824534640452845 1.6821686717641846 
0.012497281230479117 4.230605207371724 1.4651104660480296 
2.748851029456208 2.325220180352065 1.2586870376063761 
4.250046080143276 3.0926069584994673 1.6626839498576416 
1.7502453999934608 3.920966894090319 1.6376237187063938 
0.49525525334560744 0.8739636418048337 0.44751356123122366 
0.001090024481965102 1.6570464600798989 0.8896329305238996 
1.7595135099362664 3.536936878776078 1.8886146718840806 
4.251536468390517 0.7029730222572285 0.38055051641320337 
1.7421531628656148 0.2101315996820114 0.09619717229752175 
3.008571086271948 2.2382369146882186 1.2004990454139983 
0.7552761707576948 3.8920091392030747 1.6560290019568125 
-0.0051070931631691215 2.7345121274763597 1.4691398620159197 
3.7621541225333934 4.491746781373792 1.3377692195003117 
0.9982433463639718 1.8707684892406946 1.0018933631655604 
2.7599429672760736 -0.007562223861783287 0.0753902430344791 
6.511892185444676 3.7083308592449415 1.7401304951622973 
3.753188630785483 2.8117811151443757 1.5147271398578184 
6.498528467609905 1.6932503018948302 0.9116131927827194 
1.2561912563705122 3.7430647930763192 1.724950526059859 
2.000910536744092 4.366558517407125 1.3935457874629358 
3.7532051715325045 3.990939949306128 1.6057542036544463 
5.007027987128248 3.5859887275615008 1.8137780201693494 
0.9993739270665027 3.139045330901978 1.6888132680905141 
1.497433862193041 1.3995955985457056 0.745741403878376 
5.497804526477896 2.659722385035122 1.4276641551082434 
1.5032466041180108 0.6840548076077421 0.3601637844949864 
6.514726815910141 2.8347591256142533 1.525783747579591 
5.751056520065731 3.924456164110548 1.6217433390285867 
6.501356086038988 0.2820191116908776 0.15318885196518248 
0.004863218185184238 3.9780726688252117 1.5988013875876228 
4.009719880936828 4.102494868048417 1.5405864257041988 
4.510802297968655 3.7484218356859564 1.7274477261492112 
5.2565254278952285 2.549962411550885 1.3697918225083405 
4.506856994206015 3.740245548169059 1.7298267932336515 
4.507208634894983 0.7970182566497628 0.41538207568983093 
3.9968023646546977 2.4567945259804675 1.3315877979354778 
3.002415749031643 4.262082185951181 1.4371594004248631 
1.5060778420435894 0.9155561945081191 0.48763658453463166 
3.7419542619841777 0.5765948535120893 0.2908587044166098 
4.005477881789003 1.1133524611126473 0.5833908875022576 
6.003726215922848 0.15889412276292203 0.09104000858251514 
2.2514435926540206 2.5536244206979712 1.3807188712115084 
0.5069294444692409 1.7528241111514693 0.9397755369686561 
0.004482472441770794 2.421046950122304 1.29369899107669 
0.006737627309185677 2.3827032030407103 1.282778244350653 
2.759355004106731 1.9171454428720334 1.036113824641826 
1.757262447219922 2.2602880630459943 1.21267266144136 
4.505905732671713 0.4293630343722605 0.2204881625829031 
2.7599429672760736 -0.007562223861783287 0.0753902430344791 
1.5087102391018157 0.3189812338922021 0.16972223512673426 
4.753408169743133 2.219837557369391 1.1898291357038633 
3.514710314042379 3.8678568378217553 1.6595273138460944 
5.259958244970876 4.2387891058128915 1.4682286179321613 
3.5024691224587055 2.1122115286733814 1.1364973473060052 
0.49263022376732624 0.49571522186267636 0.2529427453329514 
1.9987589636752223 1.3390830498212252 0.7097873174305792 
1.2687161820419954 0.2788722625963469 0.1425402793946539 
5.996906047710719 3.612829897799717 1.8118555615871503 
1.5041292403391269 1.5207827844301236 0.8086756256467885 
2.2625844057435853 4.448273453338046 1.3510521569109286 
5.504470489650263 1.587096904780913 0.862293788490211 
3.7553166073990227 1.055390734451223 0.5695166818890137 
5.253174497475713 1.1496156626264662 0.6107333340021753 
5.262810821634617 2.0579555422204945 1.1016820854602944 
3.4983397840112036 0.6972606324606199 0.3659447687999742 
6.511243053607049 4.45889566890794 1.3436497136335683 
3.0047351497721957 3.3702025788013374 1.799551325915848 
2.002523083936219 2.634097612484582 1.41469206298828 
4.748464044463067 3.176668748838125 1.729474055179989 
3.5024691224587055 2.1122115286733814 1.1364973473060052 
6.2644588426954115 4.020387075073043 1.571239851763527 
3.2519832473725936 0.8139492199764209 0.43781952731253404 
4.004367637783033 4.505774169469732 1.3207906276263741 
3.2634957385250165 3.1952805720545023 1.7182682928368156 
1.7536079406967993 4.288189507732504 1.4388043616938435 
3.7550750086648508 0.5506674487936777 0.2907291869537435 
0.004446992485779897 0.7445629859612451 0.3941324245659836 
3.997485281462142 0.9546353491336721 0.5084709411181736 
2.2497214652511786 3.1081868094742564 1.6788897893908807 
0.25513363111349446 1.4314594512397871 0.7597073687245494 
3.752932610176871 0.6736505398779911 0.3545025667117367 
4.4866658898434215 3.8504111362428723 1.6682178109337924 
5.006942307019934 3.5120002005666477 1.8772051792255589 
4.75487857776906 4.351981243375523 1.398795429754556 
3.758886940488986 1.615844892237886 0.8656260109547121 
3.2580152333069403 1.1589208650953027 0.6247501361592722 
1.748498721060774 0.08250375021684543 0.03215928870471855 
2.0013607057302973 1.6175021178338105 0.8623567418788792 
2.257289188915945 3.9676476458906933 1.6073116910833374 
2.259396588641544 4.493892397334077 1.3251105434698967 
3.25796436308674 1.5828886790422683 0.8516818864894333 
6.006610995469943 1.153349602017221 0.6279825883548006 
3.5060359986555834 1.728373842464091 0.9223314866970159 
0.5038728905023276 0.2869452620231139 0.1440067099039635 
3.509496490184209 1.8666484205900007 0.9954559029387192 
5.508357626253977 2.4869225445811813 1.3386344507248036 
3.754020485056271 4.1272941252686985 1.5239901736099717 
0.2506471650739593 1.9115850492184212 1.0250822619989106 
2.752676161757331 0.5795846493863381 0.3056883445053194 
2.002523083936219 2.634097612484582 1.41469206298828 
1.2529601220147166 2.372824546629469 1.2687917728933744 
1.751719276295871 0.05075820276797948 0.021444082556430308 
0.9914011507716379 1.7449915314817546 0.931606954587393 
1.2490786320002871 0.8398463903081923 0.4418057190245573 
1.5118476041174032 2.8201810992415597 1.5178855764290553 
3.2514853201605027 0.9107315279529373 0.4800546590897885 
4.756250210383904 2.5962906462588786 1.4026041170534762 
2.252047482127995 3.393548523198303 1.794928958655268 
6.24463288546442 0.7848657721613994 0.40821440541635007 
0.4989926633594953 0.7179517956646183 0.38579105681213266 
5.501501658044759 2.4157816140934387 1.3113847665718723 
3.0141727733075814 2.4700006774065453 1.3221094948636036 
4.496712306469488 2.1393755208322855 1.1472703614173503 
2.9963978746887543 1.5856543530624931 0.8572067101400519 
2.74372545450324 0.7488967533022437 0.39999589622291354 
4.759566855990036 1.5999917419210576 0.8542495339064512 
1.5087102391018157 0.3189812338922021 0.16972223512673426 
1.5104975696841412 4.169837386674891 1.490855019508879 
0.0044974428211574215 2.3021628072735307 1.2256771283542065 
1.2687161820419954 0.2788722625963469 0.1425402793946539 
1.2581589169864529 4.627594824519405 1.3194303484723444 
1.2512883866637066 2.184338462927199 1.1787453040903029 
1.0088930458985526 3.6412992778382542 1.7891247816937499 
4.764253555503671 0.11334503344438682 0.05324129885072337 
2.2539334739788788 3.1711746366837312 1.712714939197754 
5.506773516426711 0.38236304918393343 0.19632684442472784 
1.5175278810655732 3.1701084089809988 1.7141625630827966 
2.495194193778281 4.5544886794971555 1.2911791866918993 
4.00714143699634 3.7190260996032745 1.7308499090160205 
3.99907477358587 4.517552295691717 1.3089815760241232 
1.7603979691188651 3.8571697089290007 1.6728276009393181 
5.509029139698443 2.5319465253462567 1.3635747217409382 
0.004863218185184238 3.9780726688252117 1.5988013875876228 
3.0047351497721957 3.3702025788013374 1.799551325915848 
3.253314190696987 0.39725044563034273 0.210636953288771 
5.4984422886356965 1.247214650383816 0.6633114675579843 
4.7602079402620845 4.1714066886419054 1.4979164445154873 
4.005348214938905 3.2843227141434346 1.7570334724143022 
0.5041532191880234 0.38241949164104455 0.1918382569234299 
0.255881167551075 2.62638191202771 1.419036024900349 
4.495917707756209 2.2465275420108175 1.2119557940906767 
2.74703187661719 3.9949970452339736 1.5872250385998108 
5.993185990148857 0.267000443063591 0.1421197482261186 
5.003577032517854 4.389386076359515 1.3898013606443425 
2.997984787513291 0.7990231160240545 0.4244987694167392 
2.259037121013617 1.3184295458216224 0.698001339922259 
1.254609598665091 2.8872286628045267 1.5530368696276449 
0.00683858626020141 3.2505942120632203 1.747270824036177 
1.5018567927199038 4.216083745271346 1.4720487257042267 
2.989932432856734 2.3190914089092423 1.2475419689061797 
5.254532629428254 2.7770774472789252 1.4957461635711076 
4.012415306284498 2.5399417351482483 1.373166666366792 
6.255929868850283 1.7636908387344203 0.9554312047953406 
6.504607591301936 4.2211080950961195 1.4685967288426527 
4.767945654236425 0.10182004427353022 0.047897567891632194 
4.24618456530292 3.930198114135094 1.6329252716342721 
6.257936909349069 1.9937295560925177 1.074531672191218 
2.752676161757331 0.5795846493863381 0.3056883445053194 
1.7474283892221552 1.9999937733762398 1.072200165670231 
2.9993295373115183 2.0604930914988215 1.1101277382797825 
3.49127449359848 1.3714163867123166 0.7232043756044163 
1.996872893951156 3.028493100117767 1.6465588179071902 
3.2509618236323656 2.039206935703025 1.0904212223045051 
1.2467711762195672 3.875736668206148 1.6691880994236985 
0.7496994304779429 2.8031933200324026 1.506468364180622 
0.5012127152516146 4.581224535961508 1.2846666769426802 
2.989932432856734 2.3190914089092423 1.2475419689061797 
6.503060242753846 2.901534072298812 1.5640574860487244 
0.2610234170461739 2.1262797243669795 1.142063307854811 
2.751756345333644 1.95252976877751 1.0512573216642136 
0.011388874454809543 2.8320580370822643 1.5201519238191394 
3.2526243606762164 0.8425810508597684 0.4527113936187032 
4.4885709293849905 0.6355933274730085 0.3335228387531272 
0.25149108397112285 1.303753889390574 0.6938935100522302 
2.509636649825634 0.4586455388954255 0.24546102420888885 
5.499300499775526 1.3786367793691694 0.7421287047254248 
5.755665603846387 1.3781179435195416 0.7484758917195523 
4.756052760259656 4.285734246065638 1.4398208950500266 
6.253869337294997 2.192544429182871 1.1748027207832286 
1.754459626603907 2.8702951493976077 1.5409607698467727 
6.0073024026031705 3.634594917438696 1.7935367037382457 
4.50418576854137 2.998715346394824 1.6185567093422335 
3.751035217201148 2.7010899242928548 1.4576435094643387 
5.50227496336732 0.6797316427395421 0.3658783001977505 
6.248889332098844 1.7659664997410673 0.944608779743702 
3.7600382429318695 0.16062678049382048 0.07340340562384513 
2.0057792553710967 1.3773673883499058 0.7398183023432319 
0.5078992974697958 2.5841301779899184 1.3822947752052037 
4.004994945850721 0.6069172826915623 0.337127843946767 
5.7560191821194975 1.3827428921045644 0.7389521162033733 
6.25545327016294 0.6643253253771629 0.3576984158647281 
3.7592002827145046 1.2071383263221862 0.647793901376137 
5.4994221106159795 0.27781458869633113 0.14060744684069207 
3.0004616855071866 4.222434182480572 1.472754052931733 
2.7531623776974747 0.9546924657898898 0.5107632418882428 
6.253287171021536 2.643518486488052 1.4190786744109285 
0.756269764127742 2.855977168757474 1.5398201491932235 
2.259037121013617 1.3184295458216224 0.698001339922259 
5.003305138233582 2.8800590110617756 1.5508055993243135 
3.7571002902990367 1.4698539977814729 0.7798029852851054 
1.0090932099418217 3.696019885354158 1.7505209623385216 
3.2514853201605027 0.9107315279529373 0.4800546590897885 
2.7445665972746305 3.7712195909155297 1.7077501043976304 
2.997984787513291 0.7990231160240545 0.4244987694167392 
2.757724552456606 0.5460248596688309 0.27155840856905367 
4.750306060425409 2.486395703583214 1.3311694570167834 
3.2496678466027396 4.480889777603107 1.330062023158512 
4.0045068769087635 1.3157558062918637 0.697112953973857 
4.500286783594938 2.3626662395075315 1.2646634760026407 
1.497346205865431 2.3607691028272955 1.2786213304812253 
4.751269466809003 1.4107885491952499 0.7513481399803483 
6.0017093542351505 0.12274782401625134 0.05765229498731768 
6.246936912633127 1.356538758307925 0.716839910403167 
0.7445950341941784 1.75518018068961 0.9346367164154412 
3.750585654616876 3.8549500899812097 1.6711658271699488 
4.762762293624208 1.4915715946654446 0.8013371387449965 
6.255620437933909 1.3072849689624988 0.6975908284265333 
0.756269764127742 2.855977168757474 1.5398201491932235 
4.255221001752835 1.7112430237890857 0.905306684838025 
5.24860563786776 1.616146840577355 0.8709215216341032 
6.257462685151712 4.558775834401018 1.2798868511696446 
3.25350656778386 1.8419084539338053 0.9757641456309843 
3.24905936062514 0.9116567917693364 0.4880492169870002 
1.495051163202476 3.7241520840585984 1.733848771788712 
3.005618889550838 2.031843292591683 1.0914671705987253 
5.5044480616866185 0.6527046061383801 0.34536640586854056 
2.257289188915945 3.9676476458906933 1.6073116910833374 
4.745061907448865 1.8638307563748093 0.9919414484180463 
4.26090826371819 1.0516444484120786 0.5442133043061911 
3.2526243606762164 0.8425810508597684 0.4527113936187032 
4.252229011415401 3.2172847950222168 1.743073492491525 
3.4998196226568896 1.562641893745288 0.8405559839462365 
5.503719658757027 2.4579775050537176 1.31938096372568 
0.23691473063407176 0.8092374813452188 0.42774040319923745 
5.007355327747988 1.0386245775031684 0.5506874396531192 
5.002573416985704 1.104101896311813 0.5920192932123932 
2.004227364654921 3.364851980292194 1.801836109584239 
3.005720327742067 0.26511286566580505 0.13518449145711395 
4.516459388138755 3.5160103326041785 1.8908545032958377 
6.006610995469943 1.153349602017221 0.6279825883548006 
4.006618280069757 0.2654318350728638 0.1293886825210273 
2.7611315104825573 4.530110367346495 1.3039126213710355 
6.50035514141486 2.7095596473644394 1.457580873224933 
2.002230242162761 3.0219324191805743 1.6252720946485746 
2.7496319801529605 2.5875162010883144 1.4002766571432201 
3.7538548760937394 3.513051884231169 1.875725318938012 
2.760798391621829 2.2838749251667068 1.2304241977233776 
2.495194193778281 4.5544886794971555 1.2911791866918993 
2.2557342199098867 4.375049145429576 1.3847818571414463 
6.011065865199537 3.9726999240714256 1.6069940047910924 
3.006069091890309 2.3740581487583046 1.2784219717307925 
4.26048318890546 1.0196543162773135 0.5438539413893905 
6.003726215922848 0.15889412276292203 0.09104000858251514 
5.251339172021262 3.9453810938296106 1.6162856390495428 
4.764253555503671 0.11334503344438682 0.05324129885072337 
4.250806085273859 3.066232207382844 1.6583798486148986 
0.7532385624050192 2.5974649018798583 1.4028851560000548 
3.2568491130415334 0.10765232614524355 0.05467114561598577 
5.757504841348833 4.133000530097362 1.5214228126052742 
2.7573408785725477 2.7381093530383662 1.466533775441968 
1.751531782998009 1.8352897322414803 0.9908817124606593 
0.0034263911924101594 1.8880071879945313 1.0127823839650922 
3.015324451838983 2.636220237893725 1.4094365860049838 
6.243828804256207 2.5618937546065874 1.3774027723624522 
6.004072049496997 0.4093449217370956 0.20470669890248008 
3.5088309579800874 2.043221153863003 1.09488036213267 
1.5122106040026255 3.1088096716717324 1.6768782931079649 
5.250582736913238 0.9339192398344042 0.49981138375528733 
2.502724503902569 1.2298062022208545 0.654733284145277 
1.7536079406967993 4.288189507732504 1.4388043616938435 
2.5064402309774927 1.6412653573054292 0.8764159139636915 
3.4998196226568896 1.562641893745288 0.8405559839462365 
2.521855786986731 2.4870172332738805 1.3337076847951854 
2.495194193778281 4.5544886794971555 1.2911791866918993 
5.262091659682161 1.1305784904765852 0.6036352603439642 
3.7419542619841777 0.5765948535120893 0.2908587044166098 
2.002937959416338 0.8576509539898938 0.45072520829678203 
2.002937959416338 0.8576509539898938 0.45072520829678203 
0.5123866528889682 3.2025556517504197 1.7201391657937557 
4.510447496194094 3.5705957935658565 1.8004016825838678 
4.244974526809812 1.175904380701938 0.6336276912508484 
6.25545327016294 0.6643253253771629 0.3576984158647281 
2.754537366448409 4.459264123107193 1.3379530787273315 
1.747508235772738 1.8483292907184097 0.9845868198786639 
6.259404855878397 4.419780790787026 1.3676072508139157 
3.750585654616876 3.8549500899812097 1.6711658271699488 
6.500673195838703 3.338025622787825 1.8024273276434193 
0.7662147039907642 0.5217226412764149 0.2765261000129672 
5.766915230368229 3.0565401651533137 1.6357602511827223 
2.267711559400028 3.071432545336496 1.6549945623207254 
0.9914011507716379 1.7449915314817546 0.931606954587393 
1.4947272004176777 0.7653476764722938 0.41197212568592556 
5.252076048736122 1.7291429548012964 0.9136231985330003 
1.4983061135419964 3.5764082423101597 1.8146781723290362 
3.4998196226568896 1.562641893745288 0.8405559839462365 
2.98728368228304 1.1539712210717559 0.6238624661963323 
1.2467711762195672 3.875736668206148 1.6691880994236985 
6.505318783796125 0.9946729016333012 0.5233021528256624 
4.236452608652732 0.07756672377306814 0.02510381683632888 
3.509547423370194 1.5855986222588083 0.8500346237507743 
3.001815063572759 4.176494587100285 1.4891407137066555 
5.497489786296231 4.0761609824187595 1.552074991052611 
1.996872893951156 3.028493100117767 1.6465588179071902 
4.5019200982411105 0.06621112840124825 0.025849140359939845 
4.500778185954739 2.5686454653784887 1.3856045814962532 
6.245631676133111 1.1828562544126302 0.6361928258647268 
1.4968748150190485 0.2677429122869335 0.14293571224040977 
1.5087102391018157 0.3189812338922021 0.16972223512673426 
4.247705541019469 3.7808931316271592 1.7100781610479132 
1.0016193476160198 3.7484604180599543 1.7274230270409323 
5.004126139858246 2.28757605573093 1.225257798480674 
3.750829635581575 2.72895984799709 1.4759984774979311 
6.499893602307287 4.5709359513008705 1.2878947163682086 
5.993185990148857 0.267000443063591 0.1421197482261186 
2.5060487317764233 2.660041773895636 1.4288691399456606 
0.2500767442553538 1.4720776129227837 0.7827754359762735 
4.757533980824497 2.7603168686083186 1.47896911319222 
3.507343620932243 2.7525357774235695 1.4795219118816945 
0.7478433453196205 1.4142447787455572 0.7563132263681855 
2.2557342199098867 4.375049145429576 1.3847818571414463 
4.7535450869743086 1.2645775968467619 0.6666317008767969 
5.9977760074934015 0.014607511103897141 0.07174536074654461 
2.505708538267077 1.0338757552619047 0.5609136231012823 
3.754150301234708 2.1911237489604556 1.173834904278911 
4.990098874840087 0.6093198322630964 0.3185796620525191 
5.250967052810242 3.8913031828389837 1.642853329826965 
3.758947073739531 1.4246631652220103 0.7556191014041037 
2.7548292040606985 2.9596719828895717 1.583759917287097 
6.0058188496787706 3.8863696158036753 1.6402065496127958 
3.247873128887761 2.210167844260242 1.1942541489922764 
5.749851195900788 1.2448326916895462 0.6634585281334102 
3.0141727733075814 2.4700006774065453 1.3221094948636036 
0.49263022376732624 0.49571522186267636 0.2529427453329514 
3.7452252875380876 2.4089390552394323 1.2952329814075552 
5.994114665455527 3.8497996993717774 1.661789074708595 
2.511098351476501 4.466761143041682 1.3340649689529198 
4.749831299249015 3.05252349339169 1.6450822454973153 
1.010692889286688 0.9339912999366858 0.49029162503563345 
2.00012426554818 3.325156640477452 1.7921512143459388 
3.5024691224587055 2.1122115286733814 1.1364973473060052 
2.498895277198114 0.14193128409581254 0.05619561961211758 
4.505905732671713 0.4293630343722605 0.2204881625829031 
-0.0051070931631691215 2.7345121274763597 1.4691398620159197 
6.508362980977841 1.3271658578002987 0.7095265417324247 
2.2470910215941013 1.5103046064980052 0.8033038249489557 
3.5075800709048273 0.915837598972939 0.486971781664578 
0.7537544790738275 3.061228511220483 1.6489130082042043 
1.5035495791838187 3.1531289695665365 1.6992925006397754 
6.2644588426954115 4.020387075073043 1.571239851763527 
6.002307236365639 1.1964762962137037 0.636624852697603 
2.505476579726831 3.2456789533101915 1.7405561105069745 
5.49454295236512 1.3144095557616213 0.6975518415504612 
2.2524568169636274 1.980537788397895 1.0760150269020672 
1.252609091842601 2.4599992400853874 1.3270009845268702 
2.5037798169900163 3.695218994723767 1.7548824670409942 
3.51279663004677 1.0610511354888514 0.5600308539907901 
1.7564367749106475 3.7718559567433503 1.7223871943832445 
3.5006041276957425 1.3489731766562347 0.7169223621525639 
0.25013845374358723 0.674341933908858 0.3643136595581705 
0.5152044529250904 3.2853730459716175 1.7700644344383407 
6.006497800422585 0.36914328976137334 0.19033213736581855 
6.261044132750519 3.4643477168020724 1.8763628379688586 
5.995916633183772 0.5049275477816607 0.2629529351824746 
0.2500767442553538 1.4720776129227837 0.7827754359762735 
0.49846514829311633 2.0035502214459644 1.087347472120414 
2.2464659145889674 0.21052559145042712 0.10465021239673525 
0.9999568417050579 4.526489633357752 1.3161268947373475 
6.010674044374097 4.165769505525771 1.5060098401384687 
3.5005131064412685 4.586830842026502 1.2879843496141938 
0.255881167551075 2.62638191202771 1.419036024900349 
5.006077377685274 4.168638011267798 1.5056504112145919 
5.761413538847108 1.7626990618346166 0.938140143123576 
4.0108556088478915 0.12247702423758065 0.06727380701621806 
3.0033903089739615 0.6007801580774413 0.3184317423536926 
4.007644394821652 2.7881638996782123 1.503808362670784 
2.2539958107857334 2.9851886034613506 1.6106060731117662 
0.24703100428009053 0.9675905188797516 0.5063399103272598 
0.5081479072384631 0.9841179344274519 0.5173268558296312 
2.245603213105886 1.480952733270428 0.7836575451851359 
0.2616671315309333 0.793410148987222 0.41549661954000405 
3.99907477358587 4.517552295691717 1.3089815760241232 
4.501683188121751 1.7726139451638505 0.9458917108163535 
4.492328211620947 1.1828451223188787 0.6186277566920055 
4.003261431195103 1.0655225078306318 0.5703670851968448 
0.255881167551075 2.62638191202771 1.419036024900349 
3.7609455642657625 3.8473771962307537 1.6801547211685182 
1.2609886172003617 3.7119298787477635 1.7533852749286587 
2.501896379758682 1.5485551108489688 0.831034092634108 
3.7550750086648508 0.5506674487936777 0.2907291869537435 
2.509636649825634 0.4586455388954255 0.24546102420888885 
6.006497800422585 0.36914328976137334 0.19033213736581855 
2.00012426554818 3.325156640477452 1.7921512143459388 
6.497062041050361 0.988781229248548 0.5206160421064564 
2.7516189071373756 3.8907082984239274 1.6490785920587951 
0.251807421632111 4.51279905407563 1.324407396562565 
3.7584011635604755 0.4177986396507219 0.2113874655858346 
0.7570414781362552 0.4013955241844045 0.20163854345932383 
0.004485984499912538 3.353299340193838 1.8155349555848808 
4.262209245266071 1.5318077646137953 0.820639786691474 
1.2573798880169338 3.366875478882383 1.799404258743719 
3.998976445582883 2.3897577682686526 1.2910206164650615 
3.513826322145333 4.569710063591331 1.2785627242771611 
1.7616309091378248 3.418086362115904 1.8838804175431916 
3.248457490965532 4.418799745221532 1.3805409799080344 
3.500648046097947 3.60508189032376 1.8007419147845773 
1.2467711762195672 3.875736668206148 1.6691880994236985 
4.254694354023606 4.14062010537868 1.5058398755553226 
0.7442411094478145 0.5915315730211824 0.2989300836246356 
5.506833430701115 0.35553357475182473 0.18052200322172496 
1.7505580806322873 1.1087809031818958 0.5858097968567879 
2.499278717943039 2.2013103957280684 1.1847062188100255 
4.754347002277093 2.1095401437498285 1.1372710636270846 
5.013067959100875 2.417522680371061 1.3000139822149424 
5.250772074621741 4.433074819861614 1.3551519557273828 
2.2470910215941013 1.5103046064980052 0.8033038249489557 
3.9992737866030987 1.8479131954713852 0.9859897441102992 
0.9926264305887375 3.8125647853422926 1.685304126972705 
6.010674044374097 4.165769505525771 1.5060098401384687 
3.2525110674418913 4.1169758902975255 1.523586552211085 
4.5034464661901055 4.313013505450691 1.419333510666678 
6.004793207183639 2.4016624829912576 1.2894904297296788 
2.756760356341657 1.1220918838242488 0.5892710564523235 
2.504000074995173 2.881318679588212 1.546731188236436 
0.7616022701369823 0.6438214486106189 0.3471182203613158 
4.503615333338474 0.8163879160952874 0.43525711001498246 
5.262409883330865 2.2923219610944434 1.2239328503829925 
2.7415547638994786 3.8716389563153895 1.6574429582585966 
3.760450217232101 1.9620376980680652 1.0479508467694592 
4.5023271559422176 2.6801548015981695 1.4337866524714946 
5.755495092998556 0.8188167665525832 0.434206880044236 
5.004592816398307 2.040117621856583 1.0926691707376799 
2.98728368228304 1.1539712210717559 0.6238624661963323 
4.50138402240414 3.93984880109248 1.6314274552968753 
3.499123459902735 2.5288939231649445 1.3512969332187108 
3.010585343261661 0.7716564191326114 0.40908051670857876 
0.9950637574134945 1.1299791105821677 0.5999456288062964 
4.4931162785699765 1.9129547369573867 1.02883567335736 
3.756767529745409 0.011011987069483215 0.06887985806618856 
2.251907529325699 2.2620023348448677 1.2204303921563828 
3.5045251533557966 0.14162550578596708 0.07603955254685517 
4.5050453307672464 1.6023450851222818 0.855563459842453 
3.7560466044348524 2.0115277689056166 1.079052190071986 
6.249490931346631 0.4245013658961937 0.22444240330609966 
1.253309621104451 0.9722897808595266 0.5303830598116708 
4.498781368828263 2.108137397138273 1.1293699511923336 
4.257504307589488 2.9704111831996522 1.5985840615160345 
0.49393968335182226 2.8949346742816626 1.553627942039122 
4.757533980824497 2.7603168686083186 1.47896911319222 
2.7553838435927327 2.799526010940735 1.512059592463545 
3.500692704331844 2.7140961039944984 1.4657638280070022 
2.506305813918978 2.853423231829241 1.5469734984293733 
3.502647620533429 1.4270476370845027 0.7558367317617067 
6.513047706917298 3.7703409537337484 1.7078115630437465 
4.004994945850721 0.6069172826915623 0.337127843946767 
5.508159047372 3.5214729611961664 1.8794874901085126 
6.258676488317718 3.322045943449725 1.7945803009083918 
5.2565254278952285 2.549962411550885 1.3697918225083405 
0.7547115458305982 2.0959489618171694 1.1329102800560198 
4.250046080143276 3.0926069584994673 1.6626839498576416 
2.7531777925469645 0.6629559408575788 0.345831627289559 
2.0097912153523465 1.4200852084756632 0.7465324084522633 
1.748498721060774 0.08250375021684543 0.03215928870471855 
4.003863496237506 3.3338731281265175 1.781258002353473 
4.757533980824497 2.7603168686083186 1.47896911319222 
0.001848321794804055 3.4971372262192273 1.8752768025738615 
6.008857832746522 2.873804711996509 1.5365600129770238 
0.7478433453196205 1.4142447787455572 0.7563132263681855 
4.503615333338474 0.8163879160952874 0.43525711001498246 
1.7399846932043972 1.1387418853322313 0.6132226549502571 
1.495051163202476 3.7241520840585984 1.733848771788712 
1.004003044504817 2.640142663333527 1.412445871773451 
5.006660649002281 3.047993200973182 1.6331535202965894 
0.9956188094466333 1.5256624278356057 0.8177778951266137 
4.00820948440777 2.004800718555885 1.069273215964964 
2.2551017895164502 2.8486648264863685 1.537250734496032 
4.755462253151904 2.962199813346718 1.589726295023744 
2.2505743084425536 1.1421053911354615 0.6072714563528449 
6.001063999360405 0.4471480659767114 0.24058085221474454 
4.254514491628332 1.0862245140447788 0.5760475758338374 
0.004863218185184238 3.9780726688252117 1.5988013875876228 
1.996397535369809 3.9747145214461646 1.6019235770933302 
0.9956188094466333 1.5256624278356057 0.8177778951266137 
6.0063018498999465 3.2595320078564516 1.7549065473477652 
3.2580152333069403 1.1589208650953027 0.6247501361592722 
3.752841632788719 0.731088079501285 0.3773860688055116 
2.250574562825987 0.06121531506758342 0.013269456078322342 
3.265497140887453 1.8559987552403336 1.0048868218038174 
3.760450217232101 1.9620376980680652 1.0479508467694592 
1.4953350112926342 0.15907500751391887 0.08301733413244859 
4.99090579791001 1.886940655817689 1.0119418932536088 
0.49263022376732624 0.49571522186267636 0.2529427453329514 
0.5013879791799714 1.426701643389916 0.7476456499795352 
0.26116436359723416 0.17138960024785382 0.08007908775368515 
4.502195715897753 2.7589678562212003 1.4794506828868086 
3.7537543903724644 0.7226312632952151 0.3750173426705494 
3.00142892582991 0.8514521305172715 0.4548645235170768 
3.26156582502813 4.115932608242671 1.5320696510645815 
0.7561994212043431 3.3907754808052024 1.8644277130833573 
2.753509493709265 1.1125571840743855 0.5847068673965009 
3.2583435496490742 3.500343652945912 1.876949258052586 
0.2480358523154369 3.1103459097552904 1.6937413394907304 
4.005063477052025 4.531078643823554 1.2996663122896657 
0.25207462070001685 1.4336218831409595 0.7704383389236032 
3.7575414643133414 0.3361969137332518 0.17969130527754296 
2.7600612625083425 0.3164447973477098 0.1557446805355602 
1.754459626603907 2.8702951493976077 1.5409607698467727 
2.74793902910239 3.1564780993609016 1.6881730552233545 
0.2540112352005636 3.128709037537695 1.6880421387632132 
2.2541184492530735 2.1352022123972363 1.1539670180678436 
4.012205110301221 4.004322728015118 1.5906761966906573 
3.2509618236323656 2.039206935703025 1.0904212223045051 
5.503719658757027 2.4579775050537176 1.31938096372568 
0.007533311030990059 0.027546377965540766 0.07884557355558489 
5.766915230368229 3.0565401651533137 1.6357602511827223 
5.254239093698291 3.138042753610387 1.6863034857563142 
3.24905936062514 0.9116567917693364 0.4880492169870002 
3.2605644543632146 2.8597191367087538 1.548133591202187 
6.501356086038988 0.2820191116908776 0.15318885196518248 
2.003961263405107 1.5894760750928336 0.8539869249520455 
0.9956188094466333 1.5256624278356057 0.8177778951266137 
0.756269764127742 2.855977168757474 1.5398201491932235 
3.24905936062514 0.9116567917693364 0.4880492169870002 
3.758947073739531 1.4246631652220103 0.7556191014041037 
1.4990345272315622 0.4435547116517636 0.23212674915083545 
2.505708538267077 1.0338757552619047 0.5609136231012823 
0.764996863352998 1.7610848071554013 0.9582335119304342 
1.0083733513765105 0.5996462811034414 0.322132281112178 
5.753476199944523 4.533854106899819 1.3020919074817814 
1.2525887419681676 2.60772173337591 1.4014472371824112 
4.7535450869743086 1.2645775968467619 0.6666317008767969 
6.506759006741041 0.8745365016303103 0.4664662452460129 
4.997593566627855 1.064699204316507 0.5681385436872727 
4.762185292264386 2.769947830486323 1.4969279129320494 
2.9910483390605194 0.6909404259399123 0.36559683008040345 
5.256033534071301 3.6729841884367342 1.7642175919413994 
0.7510289890962017 1.8175969194698618 0.9752071486383926 
0.997967166239877 1.7145514763241763 0.9139467681054367 
4.25027836417621 2.856485003206523 1.5351205358516398 
1.250377011934686 4.306829181574846 1.4259005704114467 
3.7419542619841777 0.5765948535120893 0.2908587044166098 
5.006050314194659 4.515813986952667 1.305806521865233 
0.25956791873453666 4.553401965380586 1.294171122087268 
2.7415547638994786 3.8716389563153895 1.6574429582585966 
-0.00979668434675618 4.481538297163165 1.3363365888275056 
5.497804526477896 2.659722385035122 1.4276641551082434 
2.753042007148149 0.27573147016244254 0.1436171123264409 
0.2480358523154369 3.1103459097552904 1.6937413394907304 
3.2544559394061188 0.27787419681092906 0.14467638244873157 
3.0005506842922998 2.71214328868307 1.4648555644258077 
