1.006337397988042 5.268037324667164 0.43103350698005277 
4.003315291866788 1.4167494451540281 1.1848088839844717 
5.506354582749948 5.090389351445132 0.5677684445792425 
2.507494097140647 3.143436028906769 2.1639195569914422 
2.992741196061272 2.714909012399317 2.2540405949240014 
6.002687397453219 0.8873640355812357 0.7555953094770596 
0.4978743399986261 1.0643537165240062 0.8978487947982394 
4.249391443545263 4.379725013548506 1.1544298535750381 
0.751736494214635 2.080582816756152 1.7242525621099851 
6.002584637744681 4.077704463995244 1.409517316270022 
5.746747084258134 2.8337017617970983 2.2835587647084843 
5.5102858594373645 5.774940465563409 0.017688973180443622 
3.7597962856910483 2.682894643077413 2.2319200131366 
5.254981211659582 5.353090882763547 0.34575056138175764 
1.74956998303516 3.1701448621403 2.150215206205169 
4.99624992189762 1.8292681586910715 1.519192814291915 
2.9959898510949836 4.777012083244151 0.8262241042111347 
7.508921985966549 1.2745279633744802 1.0690873422956828 
0.26053702253223743 4.059648825125678 1.429189688726321 
6.007079227603953 2.3651348147268165 1.9454757668940372 
5.760669861780297 3.324534854238548 2.02694548476985 
7.252253750760566 3.635996965301595 1.7752567108084376 
3.5073373528561143 1.3712136950235683 1.1430280006470492 
4.261499125739675 3.396764644946254 1.963890663161851 
5.254981211659582 5.353090882763547 0.34575056138175764 
5.507947413948735 1.7052612392145672 1.4211135995238746 
5.259680734440247 1.513573242864637 1.2602040069561595 
3.4967854986845675 5.611662763628131 0.13930763377982883 
1.0055180038028801 3.8941906790152956 1.5534469906837713 
3.2463075126520486 3.0494346784266835 2.252259354562114 
1.2520292673999123 4.21662778134747 1.2815158223650305 
2.5083269988127563 3.007124879913638 2.2790121685301727 
4.501995001071905 1.8585798853619828 1.5385530022102176 
3.747773520563096 1.3672526277581907 1.1357272830364855 
4.76378581731555 3.0547476841648593 2.235214802966664 
5.757089255451559 0.3401770959725856 0.3071599903741439 
2.4958436693933654 4.97475082859953 0.6647665471895237 
6.5069778353013605 0.9800133601159653 0.8369333887759167 
5.504495698883463 1.2106386721936662 1.0276872650060596 
4.499216199117748 1.0533355265465119 0.8970675214486445 
2.994155755313336 5.471484731392275 0.2560601708267061 
5.24786076436341 5.331827830700406 0.368013275888644 
1.7564726790306788 1.8992352569964708 1.5784887567156844 
7.508503262668393 2.2311756177921147 1.8484301040244617 
2.2462215384546433 1.9738471845308312 1.6451237912698378 
6.756215327881541 5.503102403907036 0.23874301571966272 
6.504778171222802 5.172899212008385 0.5011470482259732 
2.255659356988178 5.312426298963131 0.3112349493251367 
4.011189568742295 1.6902010587828467 1.4114229428534837 
5.258226318538682 3.7989337183029197 1.6199417878466567 
4.997154837679092 4.763580972881258 0.8560819648926316 
3.0009962560068093 0.7894637800515932 0.6801716059480079 
6.7669693092236285 5.4814929375351165 0.18829528841543483 
3.5108720372162012 0.9624214111737299 0.812808361091824 
1.254100261742024 3.915756148932934 1.5359815876799805 
6.259153312705378 2.414759934711868 2.006386630801845 
3.008709517769194 2.6401648279602745 2.180176004567172 
5.003553867568591 5.762319374011748 0.02600085498659506 
6.25122610847355 3.511739184477682 1.8688379954073797 
7.25633051513348 3.416106665305015 1.9512401881987302 
2.746993299722734 1.545757658010019 1.2900704293344096 
5.999137293378547 3.1811944416221083 2.1435834506000235 
4.515271853863394 0.6114096736392453 0.5353772885477741 
3.754835011112458 2.6036219299194006 2.150325363180211 
5.7677935044175115 4.3946126394105685 1.140420015236006 
4.2637839492749405 4.383226862624911 1.1590053029842704 
5.244997874293919 3.0474104096869765 2.249781418560172 
5.760276126000181 0.6714502731656152 0.5889692560480576 
1.7490096233630392 3.677390465089348 1.7418206169567598 
2.0015025747819664 5.02713395528274 0.5545694793334317 
3.7448517425463477 3.031225378835788 2.2687270084049986 
1.2617523187901891 4.22953489003975 1.2900894650844084 
5.500248098120958 0.9120590474731518 0.7660118036982215 
6.997377435620691 3.818946057296179 1.6172185412950881 
2.0032873327802987 5.416305260568033 0.30835493426303423 
0.2598752869966348 4.952380124993317 0.685673412701568 
1.741432429496261 2.469901418066329 2.0414383605298796 
1.7383268928259135 4.82852013922361 0.7853111607815997 
1.2553888462006515 3.0571415241139306 2.244123652479958 
1.0069406727202725 0.868833617228062 0.7437950992723665 
7.500883785512965 3.099840283682599 2.2066587618505618 
6.0047229313171915 1.3882425854664764 1.1592494847426176 
3.7522059811269357 0.31534337328116496 0.29348269116388465 
6.5069778353013605 0.9800133601159653 0.8369333887759167 
6.5021761951393 1.4774825057082779 1.2408954888901578 
0.5054906167924781 2.8790222226763595 2.2935538114832386 
-0.001990627482859837 3.5088575691764947 1.858276607159487 
4.012540541813162 2.8573478851496197 2.3580628368929677 
3.7533422635422005 2.3215561894529664 1.9323351634843853 
7.507491858964578 0.2523711475360337 0.23132020355705765 
0.7587525489935807 2.9925186168433298 2.2860614069954233 
6.992985709562177 4.653024860827691 0.9394294461317454 
4.249253143139519 1.490942998081069 1.2498980629146217 
5.244997874293919 3.0474104096869765 2.249781418560172 
6.758098490079465 5.578885054929247 0.1120271443669226 
5.2558660001717525 0.28308830710148924 0.26428735742570436 
4.264512635365936 5.388566946990305 0.2590536381038279 
4.511412168830178 4.005308881024074 1.4685995496745587 
7.006671285050357 4.216352785975036 1.2907285487316877 
4.998908710216553 1.2987231118693743 1.0955823066233383 
4.265737685604198 3.688029281663054 1.7359104299638732 
4.506516060004608 0.7116006585173535 0.6101472296138362 
1.5046568001260021 4.159374252530319 1.340961224367719 
5.254675890970969 1.9997660382224776 1.6717008880794528 
2.4958436693933654 4.97475082859953 0.6647665471895237 
6.2461465164374825 0.22120106549045046 0.2028804096910609 
2.498452125218233 4.796090878050123 0.8121089548261778 
1.2514543375651113 2.448001038481477 2.017512998353954 
1.2553101109148463 4.216058196988503 1.3063910432039088 
3.2572975114574967 5.214901202456832 0.4819503536256661 
3.7499683913449773 3.0105120902752582 2.2903761524176294 
0.253180229116779 3.8466489689256416 1.5935288604047722 
4.503866617093222 0.5963937555026213 0.5133797507542524 
3.7499299631824035 0.8123255923789874 0.685128838734527 
6.495824164515336 1.5959390863145584 1.3354286125113692 
2.253671628076059 4.358510301458977 1.1643086879160396 
2.003016074083753 2.4753569189951286 2.0556270869995417 
2.0074402428461586 5.691313179046261 0.09298232177163601 
1.999615404728188 1.3315297662420527 1.1154652557653975 
3.514206128883091 3.703089589854805 1.7212214299873476 
6.246465630569084 3.02800641467873 2.2721951722346585 
5.000695161183834 0.8591753170837017 0.732037562675802 
7.507947988718761 3.3700239428491856 1.9883324105065876 
0.751736494214635 2.080582816756152 1.7242525621099851 
3.0062170210805856 4.24699588503319 1.2750493106403777 
4.247100743302158 0.3569557433131931 0.322728593650015 
6.996260300466816 2.363509955534727 1.9610069475323422 
3.5012245291101016 3.047892732342367 2.255595607593727 
3.9975364899827643 5.415849778079691 0.22942309342686837 
7.492806223192978 1.7046019165709043 1.4169607449178714 
2.5121064695372963 2.5059096584175555 2.0723159572919676 
0.26053702253223743 4.059648825125678 1.429189688726321 
3.7522059811269357 0.31534337328116496 0.29348269116388465 
4.002394176184845 4.448937753060325 1.1133658387463117 
5.499470584859518 1.883212548850201 1.5695854502325381 
3.4943265043741354 5.761744176113053 0.026710709815211845 
0.7587525489935807 2.9925186168433298 2.2860614069954233 
3.7609165163602185 0.7038953209948323 0.5974376018158488 
2.762690726633682 1.3091263030010478 1.1077870419598144 
6.005475364459533 3.4783698589151464 1.8964075881494693 
4.767197404639096 3.4163769595553055 1.9434449791661104 
1.7551298800349848 5.289205788147692 0.4084014109910528 
5.003847532028479 5.3208683143820945 0.3910526566721316 
5.005343151609233 3.597114932755506 1.8092684222356648 
1.2617523187901891 4.22953489003975 1.2900894650844084 
0.761469859902013 3.8379017520041154 1.5977420944866043 
3.244024714201498 4.410540701181897 1.1300202505670967 
5.0092282716574905 5.359576651904489 0.3621557916313797 
4.758834379981994 5.185297310300337 0.5003069675703916 
1.2574754476611132 5.198371103944159 0.4920388881833871 
6.256207797143196 5.444131089003316 0.29288884544135807 
7.0048389648001415 2.5596654893639603 2.117038317437144 
6.256208047158953 5.055714622883878 0.6018812221264526 
5.2558660001717525 0.28308830710148924 0.26428735742570436 
6.503923545130512 3.0573037485335774 2.2500643490379924 
6.255441721603763 2.619339750545527 2.175099805597375 
5.5039397836892325 4.247629655554652 1.2777087530491764 
6.0047229313171915 1.3882425854664764 1.1592494847426176 
0.25936079894352887 0.5407852728282277 0.4675426246601396 
6.506241029065415 1.676308391133618 1.398471343723076 
4.506516060004608 0.7116006585173535 0.6101472296138362 
1.5182895499139026 5.697223951667155 0.07658450601184343 
7.500883785512965 3.099840283682599 2.2066587618505618 
6.510635202942856 2.3457246555813183 1.9433100654444417 
3.5179083173145345 1.9115907443636568 1.5782347006560375 
4.017872218757582 0.1340810280260334 0.14195438650543002 
6.511921888662907 3.7342686960113407 1.679380454710958 
3.012175160508602 5.235461678312309 0.4509283292713057 
5.256311489765649 2.0397309467481755 1.6947091036841144 
3.2547796853853694 2.8878851697715553 2.2921071151140775 
4.758834379981994 5.185297310300337 0.5003069675703916 
7.258929148960691 1.9125970573423907 1.581655307407935 
7.508503262668393 2.2311756177921147 1.8484301040244617 
4.247411431162224 4.629476287724537 0.9515437702605901 
7.251109479828395 2.1269975544456203 1.7710392474224665 
7.012155036753127 5.266628246412465 0.44116611800358196 
1.2497413085512532 0.004862986415569613 0.025047498027637297 
2.507494097140647 3.143436028906769 2.1639195569914422 
2.249801219912267 3.4543882653443982 1.9197225581577797 
7.514871461340583 3.0622917823769624 2.238758135866164 
3.2504822643972866 3.643278800921382 1.7615645503481756 
7.496822677198805 5.098572137673657 0.5682190198779618 
6.003345083264204 1.877700949786028 1.5665406930497812 
2.0144315746683925 0.834289042081218 0.7233355263970058 
1.509041772220488 3.986865585105627 1.480296932902242 
2.7541453861446388 4.398185024336207 1.1482227489613988 
3.246661040707576 3.5385261648568314 1.8435726290811747 
3.7558407367023086 4.6875915832502715 0.9181296290096536 
5.24786076436341 5.331827830700406 0.368013275888644 
2.497149611412598 0.5504744395616316 0.4731820688608098 
1.008309232346266 3.9042303185324423 1.5496119535587096 
5.505927726918833 2.239745582083579 1.8569800484105565 
7.258824235673565 3.2868795886597937 2.0487061077456574 
4.004207227560449 3.137050129788584 2.173904081723097 
3.763480910551889 0.8753454272068919 0.7388327399665994 
6.002584637744681 4.077704463995244 1.409517316270022 
1.9954565025322903 2.4273846423871794 2.009672093796988 
3.0086595532215443 4.76809903320567 0.8350738437155404 
7.001998995496524 1.2445652144783739 1.0553752600617277 
3.2612617792347733 1.3644113100526143 1.139428100980293 
4.507428142029815 3.162670156191316 2.154630471076304 
3.2469983501828996 0.8968696265855626 0.7508703916358838 
3.2556300240967184 5.7505993378157525 0.027720740112681424 
4.26044777645876 5.440729825163977 0.21922389088354907 
0.4946266285180523 5.310283014060007 0.31588012337654026 
0.2444403071253325 0.19415311654427972 0.1852450719899369 
6.504323024816562 1.0597392130236574 0.8985859902887178 
6.505312400263471 0.41504033329131546 0.3710223344001344 
0.2521791957722369 4.703602883156451 0.8927587030393612 
4.008382540539654 5.018044769427169 0.6307657493304402 
3.993571770091138 3.9964094117092475 1.4606704015386636 
0.7432512505841782 3.769794648088161 1.6629641651716685 
7.258941381561423 1.120396653049312 0.9381879902735867 
5.748763886345172 3.1295929628276156 2.1909031115905484 
5.241882902483921 1.074894736216203 0.9116792460462655 
6.755540587337577 3.7755549238684063 1.649973217834401 
2.255659356988178 5.312426298963131 0.3112349493251367 
0.2606053886971674 5.432695950432167 0.29491488479895883 
3.508644355623171 0.7282630404565451 0.626030257243636 
2.5082992433595064 4.74297407482083 0.845396767611523 
1.0005177998073542 3.2522934010428157 2.08400565135273 
1.0028813836407156 3.1877955570936325 2.147301645330562 
2.7638898145290582 4.134910024890982 1.364465647265992 
7.255309391512551 4.030059187724825 1.443929679344351 
5.2529138346387665 5.058040964634487 0.6063744898961597 
4.255878918465504 2.0707395292519952 1.7163954794098482 
0.5130047265947054 1.9917846296394706 1.666847864776053 
4.24826016148617 0.7755498418225782 0.6462931114651093 
7.49392949428026 1.6976074980167475 1.430840775225702 
4.00583168961439 5.172904345501609 0.49961357583235855 
6.243774833701099 3.9395286971587593 1.5219427105993233 
2.9959898510949836 4.777012083244151 0.8262241042111347 
2.249460251261069 1.07306089958861 0.9038247372043514 
3.5179083173145345 1.9115907443636568 1.5782347006560375 
4.006956787906489 4.8209307990170425 0.7972356001013737 
2.762409801723107 1.1854158743059977 0.9960579376612402 
6.995070756357236 1.8152553044316961 1.5086950206638539 
2.512909533179469 0.5298870318490487 0.45932745575026745 
3.0030691683616357 0.8574816785545911 0.7385026756843602 
7.258941381561423 1.120396653049312 0.9381879902735867 
5.765077811574348 4.436538099396936 1.1168394953944967 
7.24390530967873 4.999111862505144 0.6523752406979343 
6.260523211541821 1.6605034428670398 1.3806559614404026 
5.766237833483509 5.25177642467205 0.4479445875947844 
7.25148119322257 3.954789244117089 1.4934936974600883 
3.2470654016035705 3.3533178117482594 2.0059994882453958 
6.005585422288051 2.505876268240638 2.075473703774028 
5.497710054353805 1.06168205554662 0.9093350279661371 
6.253171698354361 0.7953095064934521 0.6759596860678682 
6.016827916878005 3.7669632178240073 1.6584114467560271 
7.252402100042135 4.701309715738757 0.9121780502136783 
1.2555306797089116 1.8814500966854213 1.556706786638622 
4.260203880029051 2.2547988459371293 1.8628372779114637 
7.513456482512837 4.4941308288204525 1.0584852570416474 
0.24876346717924236 3.891700655854839 1.5513197715288611 
0.25986854371396906 5.462827204421856 0.26134904722149915 
7.0048389648001415 2.5596654893639603 2.117038317437144 
0.012729026152442879 0.20438504423600148 0.17908664043928618 
6.768009167887598 1.7182490660380791 1.4316177286044165 
3.2536851585297697 5.104594087644111 0.5535638883812504 
4.256237352600898 1.8114340771959256 1.5097964501718097 
0.9997452153091339 0.24830441209480333 0.2404695797276492 
0.253180229116779 3.8466489689256416 1.5935288604047722 
3.0063381020725597 3.0167024483743083 2.276322701326481 
6.255581759771393 3.0106522331983006 2.291295288511454 
7.506426465421906 3.5726655134397927 1.8147244303708496 
0.25681119686489157 4.216200620368296 1.297309710905015 
3.7589415695185555 3.658716056237103 1.744754894445572 
3.247567493967549 0.29872036215349174 0.27144839824850203 
3.498577464964549 2.041251511862071 1.7004893975569642 
7.507968251649168 2.1846719955578227 1.820826254565337 
5.494148754329285 0.49112736851922933 0.4224851166449136 
2.5064127398186744 2.9922428704376234 2.2872410043869533 
5.2558660001717525 0.28308830710148924 0.26428735742570436 
5.262399093071463 2.3946934043757375 1.990057391810245 
6.755540587337577 3.7755549238684063 1.649973217834401 
7.238734209106319 5.351966042001412 0.36611668054954055 
3.9966155010678013 1.9059311864905633 1.5699085635062924 
2.5071622639700606 2.913894618382689 2.2861743360984885 
3.993571770091138 3.9964094117092475 1.4606704015386636 
4.751960245023354 4.1421849193653415 1.3547781318442853 
1.4911365876287952 1.0671172313603245 0.9069063932914677 
6.003345083264204 1.877700949786028 1.5665406930497812 
3.0063381020725597 3.0167024483743083 2.276322701326481 
7.507491858964578 0.2523711475360337 0.23132020355705765 
6.25767137455085 0.46732360060565936 0.4046067962125888 
7.2615411767483105 4.872454239134125 0.7468937384427675 
1.0028813836407156 3.1877955570936325 2.147301645330562 
0.007762509465239135 4.780952276995565 0.8301125853016175 
4.512361959232112 3.8178324122155805 1.62542662993417 
2.7536671356484645 3.794430053137513 1.6365307987813102 
1.008309232346266 3.9042303185324423 1.5496119535587096 
1.2567370825127266 3.2449631158483756 2.094763060637966 
5.996846123705188 4.35379268647586 1.1770971284450584 
0.2547958893615 1.1265976039763534 0.9488560238901417 
5.501695187812612 0.9475993124036293 0.8135374503524326 
6.243774833701099 3.9395286971587593 1.5219427105993233 
3.7678553933647985 5.7312260665500565 0.06388108691268744 
4.012540541813162 2.8573478851496197 2.3580628368929677 
4.495712096115169 0.4054514911395578 0.341974680801124 
0.253180229116779 3.8466489689256416 1.5935288604047722 
0.7644853175003138 3.3570334369720114 1.9954485319846569 
1.7559469555039615 5.23147727294507 0.37779103584334506 
1.0096691262959916 3.244887399804235 2.0854842398352185 
7.51019771691008 5.452937153392181 0.28358086358556245 
0.2527297684486542 2.4063874299120944 2.0138732736135894 
5.495026855346351 1.238537994150391 1.0464675109189634 
3.246661040707576 3.5385261648568314 1.8435726290811747 
6.25767137455085 0.46732360060565936 0.4046067962125888 
2.512909533179469 0.5298870318490487 0.45932745575026745 
1.2532604826229017 5.338192778703476 0.3782353814088085 
5.007094352865634 1.4334766577226599 1.1916874272989033 
5.2529138346387665 5.058040964634487 0.6063744898961597 
4.756291301443809 4.62172970596809 0.9616204290769865 
7.2489548937832335 5.291297411693082 0.40846841595922506 
2.7497596831796955 0.3457100854248816 0.3031121058489252 
4.5021101570767 0.23149506742676887 0.21458173458925203 
1.7564726790306788 1.8992352569964708 1.5784887567156844 
6.759914134404636 4.850218742359318 0.7823544779733158 
5.758872921221712 1.482896506052843 1.2252135050819137 
3.0070463967201206 5.500183084493522 0.2301201496110829 
4.510786390433656 2.4557519307665876 2.0316047920381295 
7.495866676043369 3.572025816639722 1.8151398387103135 
1.2654207145190617 3.2665622996023544 2.0682875539226875 
7.2558969800191715 2.3570962109985754 1.957649674365305 
7.264355230976206 4.945186481492889 0.6979794271103117 
1.0050468562962165 3.5118991930536794 1.872903252278011 
2.253987582631392 0.12429619898700746 0.09107245585377778 
5.004776077443447 0.06903315580815633 0.07553161977447861 
3.7608032184851217 5.659654420770641 0.1169333011456502 
7.258824235673565 3.2868795886597937 2.0487061077456574 
6.504778171222802 5.172899212008385 0.5011470482259732 
2.504806524808718 0.5986417557245312 0.5209856868456431 
7.499654025265059 0.6193119678147817 0.5452693686808022 
1.0041212851463044 4.8270405051028025 0.8054534427069546 
6.748353442346125 5.063426625654041 0.5982304198784035 
4.501330045775914 3.2555579884422006 2.0773458686356436 
6.254014928789905 0.10250813396896111 0.11325978650285888 
4.501995001071905 1.8585798853619828 1.5385530022102176 
1.256868949781231 2.6827749145982973 2.226423713234576 
7.511240917844064 3.7931743298962792 1.6370800308187912 
7.494556616428289 0.6474879449088788 0.5481166345094277 
3.5096625491435165 1.057969266236248 0.886715159841319 
5.754690614993364 0.44147865666042113 0.3910276573026085 
2.2513388841817714 1.5127717742145355 1.2601523122044622 
5.51880770607297 3.066187110207234 2.230467250790747 
3.00324352719027 5.176819907637263 0.43238356215376306 
2.4975094412228707 2.590715173483977 2.150302709259958 
2.499375431847608 1.2013569878182715 1.0107782746394696 
0.7459654900982788 2.2489146207816226 1.8527841575522224 
3.2578217444679742 4.771790892714683 0.8368831928573981 
4.9956533489777755 5.298567785814815 0.4085447513603696 
2.499375431847608 1.2013569878182715 1.0107782746394696 
4.010609651836833 2.001212167448266 1.6565437653830526 
3.2657825665427174 4.14136883890383 1.347486942421298 
1.508434824640553 4.919597325167651 0.7158364441305852 
7.2489548937832335 5.291297411693082 0.40846841595922506 
2.510415381098281 4.400400867138394 1.1439336427420002 
5.264319002228703 0.22582789019752672 0.21709260023580795 
0.7584592189606236 0.1796539892240441 0.1689974620581627 
4.495712096115169 0.4054514911395578 0.341974680801124 
6.25122610847355 3.511739184477682 1.8688379954073797 
1.5017265283955004 1.5953842645482843 1.3314339087495786 
6.251774030938882 4.227992822071666 1.2883695393274115 
5.760276126000181 0.6714502731656152 0.5889692560480576 
1.0043275935407396 1.7915296228818098 1.4937423236813112 
2.255659356988178 5.312426298963131 0.3112349493251367 
0.00803787537083075 0.6373984229011086 0.553663567444385 
1.0017482549159085 4.340183836987739 1.1974172556225198 
0.7431545695127294 1.4899900471991854 1.2445681148654077 
2.0050864312371033 0.4972334146235653 0.43305028834881243 
2.255659356988178 5.312426298963131 0.3112349493251367 
2.0095493347809836 4.915546032611629 0.7276080031624704 
2.5083269988127563 3.007124879913638 2.2790121685301727 
4.004207227560449 3.137050129788584 2.173904081723097 
2.2513388841817714 1.5127717742145355 1.2601523122044622 
7.2615411767483105 4.872454239134125 0.7468937384427675 
-0.007595132460281763 0.09289385769000737 0.09346048738016997 
4.4961433078869115 3.547750085325379 1.8458112260011812 
4.255878918465504 2.0707395292519952 1.7163954794098482 
0.2600557474581129 2.211248685526528 1.8328030807426814 
3.0131087667047414 5.443570183271555 0.2270573590564963 
4.753427401110971 2.4927373657488547 2.0751810861223117 
2.999102957063551 5.224712782921309 0.4717520332640229 
3.2612617792347733 1.3644113100526143 1.139428100980293 
4.007704720056186 4.062430355756563 1.4173383075814312 
3.254078028253497 1.3711039903989726 1.1526139278814804 
2.4958436693933654 4.97475082859953 0.6647665471895237 
4.260549440115858 1.831139174391793 1.5288606024704658 
2.258481321603928 1.4638840679852536 1.2127889378857089 
1.760982028509721 5.341920424399635 0.3793780753263389 
7.504895730799663 1.834167094067568 1.5370769451730633 
2.0032498648481583 1.2628814921476814 1.056551256756229 
1.2574754476611132 5.198371103944159 0.4920388881833871 
1.2567370825127266 3.2449631158483756 2.094763060637966 
6.756285379194791 4.058907608729688 1.4135877536951507 
3.7608032184851217 5.659654420770641 0.1169333011456502 
5.00694564793207 3.3036035533469286 2.041719517078105 
1.9968944278292147 5.380013655099379 0.34153711623414185 
1.2553888462006515 3.0571415241139306 2.244123652479958 
3.2521309674666656 2.109269265748209 1.742995519095752 
4.502289696941867 0.954973154241713 0.8091980782452074 
5.256311489765649 2.0397309467481755 1.6947091036841144 
1.7648159706976896 1.8631177690997278 1.542264491553265 
0.5049969821963974 4.165676320720276 1.3345213169621173 
5.006092474078258 3.0111275639406694 2.2848161273718803 
2.2537139691784 4.9487752605373085 0.6170118029578725 
2.2578298828550993 0.11699169385946072 0.11985192299110585 
1.7608734860642354 1.3990031682076116 1.184921580705035 
6.75666784760816 3.448341601550102 1.9143295609014876 
0.0020927967242843296 4.25678721017033 1.2574523205217847 
4.502949373715176 0.7847887211142692 0.6605106024436309 
4.754925976827801 4.77732832328102 0.8258021009890669 
5.502397169753373 0.6672706737927399 0.5829253131030574 
4.506516060004608 0.7116006585173535 0.6101472296138362 
4.745420124906348 0.9221333350368285 0.780924913654631 
6.500973677785353 5.207783360923138 0.497578229370863 
1.2416706289248562 1.9856038695560572 1.6416221122202734 
4.51004017347555 4.140207939646484 1.3493135876985263 
4.753373215244723 2.2218362367618028 1.8589777882752128 
0.5054226447416862 1.0029127760020629 0.8527841170800553 
0.0011344207396647252 3.7500148289057345 1.674221321976301 
6.747526902060977 3.712898715453914 1.6866967077300452 
0.495475461116163 0.0452169769960252 0.06953134979772876 
0.997177574877382 3.6420631006595987 1.7778713265738542 
7.001222804540461 1.127040391711171 0.9503149311304598 
3.7589415695185555 3.658716056237103 1.744754894445572 
4.753791450243131 5.053546084510602 0.5926991590674083 
0.008123733791487717 4.051066877543978 1.420569202310234 
7.006303503639112 3.754528156285145 1.6728389182691126 
7.508157456218249 5.260653795065292 0.42678971802237353 
5.494912712502671 0.5073061605123047 0.44130500153737673 
6.508964322980874 3.5356333944571823 1.8442609009897597 
6.25122610847355 3.511739184477682 1.8688379954073797 
3.248314277697461 4.630500310513819 0.9594116026788725 
5.24732414211515 3.7839251781928787 1.6477747626159656 
4.004504993392989 1.0509351129647644 0.8827784392228767 
0.24945333430018118 0.6897464665874183 0.5808134322382852 
3.244024714201498 4.410540701181897 1.1300202505670967 
1.754291841609959 2.597580942626189 2.1648869262485024 
6.767081617655954 4.471970348407708 1.09412361717464 
7.004986583176616 0.17244462452390277 0.15801385143346527 
1.7483057274168254 2.4376803848193034 2.0285876221079806 
5.264319002228703 0.22582789019752672 0.21709260023580795 
4.512361959232112 3.8178324122155805 1.62542662993417 
6.755861904170063 1.7987068240910868 1.4870949611097115 
4.25749125432305 1.412686476110598 1.1864236088175553 
5.254675890970969 1.9997660382224776 1.6717008880794528 
6.495824164515336 1.5959390863145584 1.3354286125113692 
2.513825403845151 4.0749152577720515 1.4029679042743035 
4.252617779672978 0.6148759377485334 0.524475863083796 
6.497667280988398 5.625240602356305 0.13095647267863625 
2.7504773322211085 1.5013566102167202 1.2638745392097406 
4.00583168961439 5.172904345501609 0.49961357583235855 
2.999102957063551 5.224712782921309 0.4717520332640229 
2.992741196061272 2.714909012399317 2.2540405949240014 
1.745088514456677 4.757533384524532 0.8488919568384168 
1.2654207145190617 3.2665622996023544 2.0682875539226875 
0.761469859902013 3.8379017520041154 1.5977420944866043 
7.258599959567311 5.213700423067105 0.4005363240265892 
6.501322609553232 4.309745700204204 1.2172119712848821 
7.011566457677688 4.342766454180636 1.190331185032194 
4.256110167752868 5.252445402576082 0.45507900509400856 
0.7598863786868835 5.0320274000956795 0.6166179223798445 
0.25986854371396906 5.462827204421856 0.26134904722149915 
6.256208047158953 5.055714622883878 0.6018812221264526 
0.49575474242457 1.348390832716845 1.1269643388354962 
2.2591091681580946 1.7177108842276136 1.4378064833720003 
6.497667280988398 5.625240602356305 0.13095647267863625 
0.999820136788622 4.456335243049327 1.1053902769815802 
1.9956030269534144 4.164387261510686 1.3215582645315929 
6.768013184520365 5.235907181995776 0.4578151766379348 
4.26044777645876 5.440729825163977 0.21922389088354907 
4.013157478843113 0.8316277655830878 0.6983370577717541 
2.2580889883348845 5.617401961717193 0.14289262492351598 
1.2576007412858434 5.362284787355296 0.3584897755573429 
0.7625465307024415 5.576861460876615 0.10466025451902046 
2.250696480527425 0.20634361197290324 0.1999287234144626 
6.758964614293525 3.1316294845362886 2.1836902839681356 
0.0037792159241185385 1.8632526730376815 1.5630581327234008 
7.020960401854532 2.7832849767747 2.2834990765401857 
7.24390530967873 4.999111862505144 0.6523752406979343 
3.2556300240967184 5.7505993378157525 0.027720740112681424 
1.256868949781231 2.6827749145982973 2.226423713234576 
4.997154837679092 4.763580972881258 0.8560819648926316 
0.9933371256488114 1.3477434306995753 1.1290387675862796 
3.0054861296746593 1.16359574652946 0.9838100021340382 
3.2504822643972866 3.643278800921382 1.7615645503481756 
6.768013184520365 5.235907181995776 0.4578151766379348 
0.24783940415316208 5.652627114360823 0.12268026405835057 
2.752294345295993 1.2528958500127796 1.0477266046555496 
5.760669861780297 3.324534854238548 2.02694548476985 
5.007094352865634 1.4334766577226599 1.1916874272989033 
1.0080287654288758 1.5891958098638275 1.3254795330028846 
7.012486943981035 5.697751189746538 0.08508684528043785 
6.506804046038801 1.39186800113409 1.162927786375268 
5.759101481183871 5.640586869961878 0.1227241950534227 
1.9937067468900163 3.362232122624165 1.9969761824120056 
0.9914909552505754 3.395126028918021 1.9775980627187353 
6.504323024816562 1.0597392130236574 0.8985859902887178 
0.999820136788622 4.456335243049327 1.1053902769815802 
1.9937067468900163 3.362232122624165 1.9969761824120056 
2.5036783638247804 4.601613712246725 0.9802389319177057 
6.755861904170063 1.7987068240910868 1.4870949611097115 
0.7592435569657975 3.0291488628756538 2.2698512863540916 
5.756346824308453 2.046989879604726 1.6974558697030955 
5.002208534207383 5.5209169185449465 0.22589512774514792 
7.257430630765504 1.2285106503267218 1.0287254196558153 
1.5130776090342617 5.142329266143332 0.5356714104668744 
7.504361967459687 3.010546381588217 2.278327428751442 
3.7565224140756546 5.141157011867516 0.5315419172937708 
2.5064127398186744 2.9922428704376234 2.2872410043869533 
1.756500372982069 3.8770978191265293 1.5788707791041932 
3.754835011112458 2.6036219299194006 2.150325363180211 
2.7536671356484645 3.794430053137513 1.6365307987813102 
0.007412806530473645 4.598653130745317 0.9752339934444654 
0.012729026152442879 0.20438504423600148 0.17908664043928618 
6.256207797143196 5.444131089003316 0.29288884544135807 
2.0162111271243357 0.07197553156690027 0.08095400576184683 
3.008709517769194 2.6401648279602745 2.180176004567172 
2.260546510067038 4.064410306840551 1.4033325584079712 
4.257440326650982 4.317681344819017 1.2012995668034354 
7.258352825305967 5.367991650834067 0.348766726722866 
7.493755276547965 1.0697395862618166 0.899813157341755 
0.7482923623074166 5.0708794044513334 0.5178681412027565 
1.0003756321688908 3.7106121723904795 1.7114237738081182 
0.7613893505528442 4.081118741576534 1.4086488284092125 
4.260880259648891 4.724840014346753 0.8741675442151806 
7.244792422737347 2.008809858660809 1.6758277619789086 
6.996260300466816 2.363509955534727 1.9610069475323422 
5.255217978223208 2.9563709369043676 2.2771853669297526 
1.4980536130792608 2.004841352607532 1.6724683600689947 
1.745088514456677 4.757533384524532 0.8488919568384168 
4.511431770663652 2.3496815356783203 1.9609569919106153 
5.752577204082458 0.036792013581390996 0.06130959302667399 
4.752165838591929 4.4800596882388275 1.0722382347434884 
1.2532604826229017 5.338192778703476 0.3782353814088085 
7.258929148960691 1.9125970573423907 1.581655307407935 
6.016827916878005 3.7669632178240073 1.6584114467560271 
6.508983364375499 3.2827857077082863 2.059963475308043 
5.014399423244969 2.739675612160156 2.2736383855564126 
7.2563637521521365 1.968012476601804 1.6395508690391498 
0.0004037040339134471 4.852203572654127 0.7831663344409229 
6.753040689646134 5.370516447406612 0.3514643171424881 
2.4975094412228707 2.590715173483977 2.150302709259958 
3.010152720031466 3.0168884305039443 2.2738649136153506 
4.759462971341176 2.4855754862735604 2.05965880312825 
0.754936593797774 3.8085025154956216 1.6198977631800489 
3.5073373528561143 1.3712136950235683 1.1430280006470492 
1.5033166780085934 5.512223935949997 0.23170479940839292 
3.7565224140756546 5.141157011867516 0.5315419172937708 
4.5021101570767 0.23149506742676887 0.21458173458925203 
6.501073949295685 1.0165863523802992 0.8639716821554604 
2.015974024175423 4.970171055834775 0.6621969535827003 
2.5070952131948454 1.5838614902395427 1.3254160147168674 
0.25936079894352887 0.5407852728282277 0.4675426246601396 
6.504706130009508 0.9734852496751424 0.8190532636972818 
3.247567493967549 0.29872036215349174 0.27144839824850203 
3.512894405891399 5.489958240621628 0.24733754147730472 
6.254014928789905 0.10250813396896111 0.11325978650285888 
5.003553867568591 5.762319374011748 0.02600085498659506 
3.2552381089473994 2.2993147810535794 1.9119775560520125 
6.504778171222802 5.172899212008385 0.5011470482259732 
2.259758168405657 1.9565700044781735 1.620190971273103 
1.4976208628257344 0.6103156776887068 0.5175582895818861 
3.7533422635422005 2.3215561894529664 1.9323351634843853 
3.5096625491435165 1.057969266236248 0.886715159841319 
7.512374692895852 4.186365681196281 1.3191931855518624 
5.257528745471442 4.9108920383790045 0.7207039021407431 
6.997377435620691 3.818946057296179 1.6172185412950881 
3.9924841483192304 3.8004879076844063 1.6272663686047344 
4.500199019309515 0.9825666277320082 0.8145051931323075 
3.250414353398324 2.345304173726725 1.9461797892735269 
5.51019011901983 5.532021584746287 0.21819551730111195 
2.5018493535520956 4.445384547803205 1.0986153444324511 
-0.001990627482859837 3.5088575691764947 1.858276607159487 
2.249801219912267 3.4543882653443982 1.9197225581577797 
5.765077811574348 4.436538099396936 1.1168394953944967 
1.7648159706976896 1.8631177690997278 1.542264491553265 
0.25487424781294726 1.1020593959735445 0.9304497983341583 
3.999999580258994 1.6560908661041653 1.3697196420063125 
4.998908710216553 1.2987231118693743 1.0955823066233383 
3.5078891235713567 4.164277036832097 1.3294211249510206 
1.2478334631826722 3.4692343390019027 1.9134473728655639 
3.248314277697461 4.630500310513819 0.9594116026788725 
4.2581034553026145 5.433985796952579 0.28826020906712246 
1.2475598054467303 4.38210486014683 1.1513436874759206 
6.002077451244713 5.1552825187032445 0.522756049542779 
6.758775312851248 1.4694737510157232 1.2366654718818946 
5.497710054353805 1.06168205554662 0.9093350279661371 
4.002073491634829 4.491298110473886 1.0622772251837649 
1.0072087633018467 1.8628850854917938 1.553094371598586 
7.496801073945734 1.8764839356628134 1.5660442743833876 
2.7648988909465433 1.97750441360925 1.6466115175327196 
1.0069406727202725 0.868833617228062 0.7437950992723665 
2.253987582631392 0.12429619898700746 0.09107245585377778 
2.5082992433595064 4.74297407482083 0.845396767611523 
6.508752737801668 0.6491977500057153 0.5444102797776615 
1.7648159706976896 1.8631177690997278 1.542264491553265 
2.245610400382624 5.4631498288738545 0.21070587864661397 
5.491443324835468 5.033066761732554 0.613896974849523 
5.249754565729678 1.6481434450714965 1.3808587967239647 
2.5036783638247804 4.601613712246725 0.9802389319177057 
0.25126527383912683 2.0266685311380703 1.6726830375057031 
1.0080287654288758 1.5891958098638275 1.3254795330028846 
0.4950603658402508 2.590053545300758 2.143475136774764 
3.7488021983384203 5.61522341737377 0.14276272683713304 
2.9990493778637997 3.8555127166498724 1.5854754697695694 
4.248216441364759 2.338379027212905 1.9416445360869345 
0.0022935107118185697 2.927743235864226 2.2843606894288366 
1.2475598054467303 4.38210486014683 1.1513436874759206 
7.251695120147084 2.4645528494691202 2.0404627298678895 
1.005822717251031 3.0303142950545023 2.2615220663526285 
6.746415414846003 0.19012762444219727 0.17090176183940978 
2.0040919036804996 1.3693078272724946 1.144390717722241 
4.253743280839486 2.4709511407977747 2.051393832290269 
6.758098490079465 5.578885054929247 0.1120271443669226 
7.00785147555758 3.4778835880748917 1.887414916927313 
3.0041204577168834 0.23716071624271878 0.22049082835648268 
7.5110599982948125 4.585935489088163 0.9842996342054802 
7.249512865695842 5.714924331267632 0.058485822846072455 
0.7657536997142659 5.013082458663299 0.6405313773942555 
3.253924965637872 4.096597357340614 1.3886537178575218 
1.996586003342702 1.7251648919788862 1.4518920733098626 
0.5130047265947054 1.9917846296394706 1.666847864776053 
4.75272379201676 1.6985786096293318 1.4175353200917202 
0.01056473717295935 4.762450709951465 0.8398157647923944 
5.510182280103416 4.125553867282694 1.3765182663230344 
1.5007796627583667 3.082203667078058 2.2129492805199407 
7.49392949428026 1.6976074980167475 1.430840775225702 
0.5046824656778762 4.412177026399503 1.1295699861093527 
3.2434456436447134 0.5557286796592862 0.48404316129436586 
4.767197404639096 3.4163769595553055 1.9434449791661104 
0.7563175914916114 3.672491733054205 1.7360309435172119 
5.507144914239267 2.7660646503431594 2.290929848273763 
3.747773520563096 1.3672526277581907 1.1357272830364855 
6.004118414678433 2.2883295741787344 1.9065885121611192 
0.24822001162149823 2.430546874373777 2.0073753641832592 
0.5121714266812675 4.917071654229677 0.7217731000983922 
6.257408669620481 2.034811498798684 1.6763030576704823 
7.2615411767483105 4.872454239134125 0.7468937384427675 
2.504976780438009 4.489994284886574 1.065701905490006 
3.250414353398324 2.345304173726725 1.9461797892735269 
5.256760282279439 4.991365124368813 0.6712508755000399 
5.255217978223208 2.9563709369043676 2.2771853669297526 
1.5039643610266833 2.271059357453419 1.8856837770587804 
2.499449505914279 3.837744262841668 1.6011940251276633 
0.24822001162149823 2.430546874373777 2.0073753641832592 
0.5019816687562735 5.327876321051883 0.38382809785541167 
0.7598863786868835 5.0320274000956795 0.6166179223798445 
1.5023515829510448 3.641800966564946 1.7755841296552324 
2.7487538286743995 0.8866049339288395 0.7529545491010629 
5.5039397836892325 4.247629655554652 1.2777087530491764 
2.7445634367018132 2.1544789246386062 1.796950825330648 
5.2558660001717525 0.28308830710148924 0.26428735742570436 
6.004118414678433 2.2883295741787344 1.9065885121611192 
2.2490647884967836 2.420916751808521 1.9967401575582808 
4.99530212299968 5.3431556360341865 0.3679139749890318 
4.502223074549948 1.3010000744862602 1.0975604905660936 
3.246697678522956 2.6558957474170537 2.1989612483712295 
2.4930359116119427 0.5636950217356129 0.48216691921753696 
1.5045024172129027 2.567653526079677 2.1359857760201972 
6.759914134404636 4.850218742359318 0.7823544779733158 
2.502325053418539 2.8671285777848983 2.269810815909818 
2.0192720746519996 2.032420773570136 1.680842773253406 
0.2547958893615 1.1265976039763534 0.9488560238901417 
5.753887483240445 4.232297457068752 1.2900937323836026 
2.7471160830501216 4.0786602755955785 1.4095568597041155 
1.7523684947783607 4.801927049674643 0.820580542975942 
6.501897051072541 1.8382440836194278 1.546780311390577 
6.002007238681128 2.323185166731327 1.9170303360341734 
4.247317796298693 0.2607818719082368 0.22450826453262648 
6.9994280902834936 4.287406356369779 1.231612116632736 
6.744580582327265 4.594557630785137 0.9834114794160924 
1.2565343871549017 2.9968906270777644 2.286429282064063 
5.753590462204109 1.1146222822666454 0.9403205158743964 
5.008560694652144 2.541163271731854 2.1142964767677768 
5.765833581355639 1.1462051445306605 0.966872012787182 
6.9994280902834936 4.287406356369779 1.231612116632736 
6.750627164555023 4.5646174910769775 1.009009753381064 
3.997106765605005 0.7081750475384196 0.6084260646411196 
5.509889446048466 4.349497773122269 1.1766753747202214 
2.0076281576890063 3.6166679811284435 1.7820368871082544 
2.2645827843747193 0.021955063792468817 0.05171619155800608 
3.7565224140756546 5.141157011867516 0.5315419172937708 
4.002073491634829 4.491298110473886 1.0622772251837649 
4.263342059245977 0.27640614888130377 0.2516056441789708 
5.743730344293337 1.6571589938934717 1.3911797416461824 
5.497710054353805 1.06168205554662 0.9093350279661371 
1.006337397988042 5.268037324667164 0.43103350698005277 
2.7578218338757314 5.355761624112572 0.3657572237604722 
6.756215327881541 5.503102403907036 0.23874301571966272 
6.011197518767194 2.2982204783238056 1.9066993904202494 
0.9920598272162777 0.17951034343572947 0.16992331668825417 
6.75666784760816 3.448341601550102 1.9143295609014876 
4.24826016148617 0.7755498418225782 0.6462931114651093 
4.24548466658361 2.7996951266569665 2.2677818960065803 
5.254675890970969 1.9997660382224776 1.6717008880794528 
4.260230426256075 4.630536677225776 0.9442446188308548 
6.9994280902834936 4.287406356369779 1.231612116632736 
0.7459654900982788 2.2489146207816226 1.8527841575522224 
6.243774833701099 3.9395286971587593 1.5219427105993233 
5.758872921221712 1.482896506052843 1.2252135050819137 
0.7574652922391922 1.022148453071527 0.8498848785651288 
5.759101481183871 5.640586869961878 0.1227241950534227 
2.497149611412598 0.5504744395616316 0.4731820688608098 
6.0047229313171915 1.3882425854664764 1.1592494847426176 
1.7447643857426853 1.113959930411467 0.945870093333453 
3.9924841483192304 3.8004879076844063 1.6272663686047344 
6.995070756357236 1.8152553044316961 1.5086950206638539 
1.9996673196297252 1.5147367324038246 1.2569199328204805 
6.008859572422024 0.524249367386154 0.44660701969139244 
2.7487538286743995 0.8866049339288395 0.7529545491010629 
4.759462971341176 2.4855754862735604 2.05965880312825 
4.24826016148617 0.7755498418225782 0.6462931114651093 
6.500938769737644 4.713997508521841 0.8805689629378377 
1.745833712423393 2.2457752717437747 1.8612799641189124 
4.499216199117748 1.0533355265465119 0.8970675214486445 
4.264512635365936 5.388566946990305 0.2590536381038279 
7.258352825305967 5.367991650834067 0.348766726722866 
5.757089255451559 0.3401770959725856 0.3071599903741439 
4.511512132541443 0.9948371697603092 0.8405628895144914 
7.2558969800191715 2.3570962109985754 1.957649674365305 
2.510415381098281 4.400400867138394 1.1439336427420002 
0.24765616100320464 1.4094388761828003 1.1833409594238542 
1.2553101109148463 4.216058196988503 1.3063910432039088 
4.495712096115169 0.4054514911395578 0.341974680801124 
5.5039397836892325 4.247629655554652 1.2777087530491764 
4.006956787906489 4.8209307990170425 0.7972356001013737 
7.010613759648813 5.693529654685791 0.0861453012369909 
4.240705701048707 2.9260376962930064 2.2749123790253836 
4.247411431162224 4.629476287724537 0.9515437702605901 
6.503533199209064 1.4767747962596853 1.2380490955671648 
0.5116859647269146 4.037774371807783 1.4485698237423787 
5.248317495594153 1.9871372655908786 1.652331667765576 
2.0012400559167074 2.0365598796325104 1.7040727813568723 
0.7565719323752933 4.125710293021363 1.369422888308562 
3.4967854986845675 5.611662763628131 0.13930763377982883 
3.270444299196433 5.665010526911842 0.1044283074947357 
5.003553867568591 5.762319374011748 0.02600085498659506 
2.507732262085509 2.8480417716226754 2.3623720614718278 
5.4998644139680595 1.5599130469830336 1.2969081190965899 
1.5007796627583667 3.082203667078058 2.2129492805199407 
0.754936593797774 3.8085025154956216 1.6198977631800489 
2.2443230772339136 4.022094005033905 1.462382804908437 
2.7648988909465433 1.97750441360925 1.6466115175327196 
0.7587525489935807 2.9925186168433298 2.2860614069954233 
0.26636360479150284 5.640972807442426 0.11417399858899173 
2.4975094412228707 2.590715173483977 2.150302709259958 
3.512894405891399 5.489958240621628 0.24733754147730472 
0.9914909552505754 3.395126028918021 1.9775980627187353 
3.2591178399580376 0.06563475590060791 0.07368657450685023 
5.264036470131235 5.316198842938915 0.3815101931017374 
3.501659483932436 2.1560908102113663 1.7860328609642837 
4.265737685604198 3.688029281663054 1.7359104299638732 
0.7507965687934199 4.1838451074519885 1.315851721533006 
1.2556951319547067 2.9769909230987768 2.283526330820437 
0.49019779106961037 4.0381077190084635 1.4486346067512683 
0.5019816687562735 5.327876321051883 0.38382809785541167 
2.015974024175423 4.970171055834775 0.6621969535827003 
1.2416706289248562 1.9856038695560572 1.6416221122202734 
7.513456482512837 4.4941308288204525 1.0584852570416474 
0.5054226447416862 1.0029127760020629 0.8527841170800553 
4.99530212299968 5.3431556360341865 0.3679139749890318 
1.7576590691671918 0.12413410843915106 0.14357930682769665 
5.745220956867213 4.264084575275649 1.2428770962823095 
7.504521969253767 4.066520468454782 1.4151048987828772 
1.0069406727202725 0.868833617228062 0.7437950992723665 
1.265330007296663 0.7286542783479744 0.6119537517557886 
2.7493812324774916 2.94960430916247 2.287417025543251 
3.4967854986845675 5.611662763628131 0.13930763377982883 
0.763978422922748 3.1570146839001003 2.163274729760909 
4.240705701048707 2.9260376962930064 2.2749123790253836 
2.7445634367018132 2.1544789246386062 1.796950825330648 
0.24822001162149823 2.430546874373777 2.0073753641832592 
2.7632993302840183 5.68019190087534 0.08168311236896901 
5.757522406661737 0.11561968393807437 0.11055436432107679 
7.4980629657203055 0.11454146842801165 0.11299142796839269 
7.001998995496524 1.2445652144783739 1.0553752600617277 
1.0099235319681727 5.0842385481680425 0.5024109552146578 
4.50954275846702 1.5474008715745076 1.2947919777837333 
0.7431545695127294 1.4899900471991854 1.2445681148654077 
3.508211231429742 5.695351045382132 0.0730419662448408 
5.003715618368765 1.1961872242393712 1.0114085685067316 
2.494766602776551 1.2609899073518946 1.0491257153608733 
0.019944461957720178 0.2744575846141352 0.24703856386104686 
2.5064127398186744 2.9922428704376234 2.2872410043869533 
0.4970010275785858 2.7900703366218647 2.279574371259362 
6.75797414039217 2.817493876522761 2.2876340691267822 
2.5001858609279037 0.5356327795651877 0.45151126566043803 
5.510560763419183 1.3219218170754743 1.1085017313459102 
3.7533422635422005 2.3215561894529664 1.9323351634843853 
6.256208047158953 5.055714622883878 0.6018812221264526 
0.761469859902013 3.8379017520041154 1.5977420944866043 
1.0051022520686332 4.157332612465214 1.346455192177557 
5.998232689417475 1.3415671410057877 1.1221172055383397 
6.005585422288051 2.505876268240638 2.075473703774028 
5.766237833483509 5.25177642467205 0.4479445875947844 
6.758499868999658 4.502640417454722 1.0696603412551176 
0.7488967878095452 1.9105615600049086 1.5838843191370118 
5.002208534207383 5.5209169185449465 0.22589512774514792 
5.996846123705188 4.35379268647586 1.1770971284450584 
4.255878918465504 2.0707395292519952 1.7163954794098482 
1.2478334631826722 3.4692343390019027 1.9134473728655639 
6.747526902060977 3.712898715453914 1.6866967077300452 
6.756285379194791 4.058907608729688 1.4135877536951507 
1.7383268928259135 4.82852013922361 0.7853111607815997 
6.746415414846003 0.19012762444219727 0.17090176183940978 
-0.001990627482859837 3.5088575691764947 1.858276607159487 
6.012952104255793 3.3343986661703164 2.0246735265975357 
4.500602424874282 4.588190162719107 0.9836424539518838 
6.7523624330630385 2.445539796576229 2.031306267210479 
3.4943265043741354 5.761744176113053 0.026710709815211845 
3.498577464964549 2.041251511862071 1.7004893975569642 
5.249754565729678 1.6481434450714965 1.3808587967239647 
4.999753548274546 4.3074708145575125 1.2158540248437961 
3.0033390573931973 1.4064895480148867 1.1856875263242261 
2.006270653327409 1.1808125012016133 0.9891505401197548 
1.2576007412858434 5.362284787355296 0.3584897755573429 
6.744580582327265 4.594557630785137 0.9834114794160924 
0.7548192992838142 0.8146071369447895 0.694552709371866 
1.0017482549159085 4.340183836987739 1.1974172556225198 
6.256207797143196 5.444131089003316 0.29288884544135807 
3.2559605530421396 4.9876364389080825 0.5883317338186144 
5.247981230429996 4.101809969837625 1.3883972200521757 
7.249512865695842 5.714924331267632 0.058485822846072455 
1.5071380985728244 0.4985202726023714 0.436679312741174 
1.7556083093509307 1.1168246414066203 0.9485293721502169 
6.997377435620691 3.818946057296179 1.6172185412950881 
4.249253143139519 1.490942998081069 1.2498980629146217 
4.74169923750387 1.4866688119119418 1.2557454215101114 
7.001998995496524 1.2445652144783739 1.0553752600617277 
2.5071622639700606 2.913894618382689 2.2861743360984885 
5.003553867568591 5.762319374011748 0.02600085498659506 
6.747526902060977 3.712898715453914 1.6866967077300452 
1.2451459638160804 3.1769458004981614 2.1403389147642735 
5.766237833483509 5.25177642467205 0.4479445875947844 
1.0069406727202725 0.868833617228062 0.7437950992723665 
5.25503605481747 4.00630860014041 1.4632402743713382 
1.254100261742024 3.915756148932934 1.5359815876799805 
6.755861904170063 1.7987068240910868 1.4870949611097115 
1.2553888462006515 3.0571415241139306 2.244123652479958 
5.249754565729678 1.6481434450714965 1.3808587967239647 
