0.5024179910476969 2.992953783294334 1.8503757062295678 
0.24726651672966968 2.7049949106370814 2.010728692440167 
5.759748350471482 2.332779680961425 2.211834764415617 
1.2608632306486638 3.9273118412570525 0.38554706602297123 
5.260164826325155 0.7689920792461183 1.0774030964632735 
3.5009255346896464 0.5372788022709444 0.7525119776670968 
6.019575625414103 3.4049015026761573 1.1604077132310213 
3.4988173075641122 0.7984748971628766 1.140841243127189 
1.7536934480037094 1.6396261083546657 2.0717663155984387 
1.7492815107965187 2.932233420958147 1.882149388488498 
5.758795387723182 1.4347429753641598 1.964695090597896 
3.503434665924474 1.4456261233856644 1.9689396517772497 
4.003026262172391 1.3765964648645312 1.9273905648505834 
3.5128789768187145 3.584245665885273 0.9039335281084987 
4.25540196392466 2.2482018628743523 2.2616518965628436 
5.253063626519997 1.34496590335631 1.907132035299374 
1.0034758792089604 0.7522849348504801 1.0630560752102678 
3.7531447681144248 0.06289587276543794 0.11436857342183789 
1.762443281162376 3.776863363471236 0.5945067744653898 
1.2570496596009 2.665658399276345 2.0352274156471384 
3.25464591871704 3.993158866948069 0.2843678010017462 
4.504412657221926 1.9506479734838569 2.2528617291495543 
2.2453019322202303 2.2493450748638497 2.257572017358677 
6.0055069098471705 2.900586607705962 1.8971529749024907 
0.4964260253666312 3.6547658147224436 0.8034184065539348 
3.9998940127730025 0.244209657817102 0.3066816279388712 
3.5086213466970517 2.2743256974440147 2.2514635604245092 
0.7619288531057163 0.5384993958940753 0.7578421279970751 
5.759523141596239 3.303496449510791 1.3102046649506833 
0.7597757168081332 0.19783342450316832 0.2365834732043341 
5.245654543853845 2.8256173771810755 1.9415423908854086 
2.7487631271988726 1.9988314951362889 2.263289557258796 
3.7528382536242804 0.9608246586891798 1.3862968184858884 
4.254720749024265 0.6144473235568391 0.8749573737050518 
3.5023953485581765 4.191411051024709 0.06692615896542595 
5.00385693828774 2.044984607392626 2.3460323008718147 
3.0046409449455074 3.911362541237554 0.4057297222288961 
2.007199396857344 2.196202437283756 2.319995948237966 
4.754890967968317 2.923905814540518 1.89248648389791 
4.496077704392189 3.608363416850756 0.8538060916260851 
3.509083706333626 0.7626090151634394 1.0813351159694489 
3.5073734937088066 2.7738671811915405 1.962308527354799 
2.0023440764119735 1.270134381771284 1.879788138560898 
4.511304426956174 4.160011005617696 0.10898246968065715 
1.0092460083302173 3.068097534515763 1.7393136657336759 
5.508615855031517 3.3860441682084375 1.1940685187611488 
1.2707483807798818 4.024239662120985 0.24280583624059635 
6.010427346991021 1.739342431925457 2.1323102021249984 
0.7619288531057163 0.5384993958940753 0.7578421279970751 
4.503459873943705 1.7885375214209354 2.1608077548209166 
0.5019691204851832 3.4266679540374825 1.1525943926176068 
2.2468067320031784 1.941577860225634 2.238735291638295 
2.7536371093769425 0.17156186691973813 0.2176645503087927 
3.001777376322739 3.879905869735554 0.44034604551012135 
5.749834083303815 0.01952059416117322 0.061047709996418204 
2.9997054130823315 3.6725080001850547 0.7724004703931409 
0.015168915661621929 1.586078586818221 2.0510901060733095 
3.7513491513718558 1.4310118312186966 1.9618628877375937 
1.7549502822768723 3.2051524824845226 1.4594327142903476 
6.01057184292342 3.274675677974811 1.348853419701613 
1.00283581273027 4.091599272422554 0.11913803916735166 
0.49651573634409946 1.3472511413072277 1.919300861503348 
0.5025008037303488 1.4022705858645523 1.951092007500239 
4.999451180286459 2.6108217598114067 2.0644092394235347 
0.5118430402419157 4.010445071878066 0.29284986429838905 
3.003799026675787 2.9079639577821927 1.8985168935556793 
0.7546043916035565 0.13614926574044742 0.14911281338769278 
2.495822263224387 0.29815982933966734 0.39304949491544067 
6.017390155862306 1.7864668310528353 2.158378731611045 
2.7564352196848008 3.6923982473984953 0.7432641451620254 
2.0001902625413126 0.8590398050092907 1.226256655012301 
4.000518061834526 2.4482707805046307 2.1526997063567324 
1.255766263170415 3.2056736409829734 1.4753560771706877 
3.760883736519674 4.123853846912886 0.09208000254265632 
2.7476335058999624 2.952919415107577 1.878225558337411 
2.7531091166526953 3.085956415762997 1.6320750278501606 
5.491186503610076 2.687671046507318 2.009546283532714 
2.996147438881659 0.11848023157668106 0.19192465884146642 
5.253063626519997 1.34496590335631 1.907132035299374 
0.7495566870840323 0.2575548894361199 0.338849164429919 
4.995594260245641 0.4873944171212872 0.6803665566108111 
2.2532281040544584 3.8984906218330067 0.41031574428300044 
0.9916422038968504 1.1179548613370405 1.6079266145339612 
1.4951947696407353 0.9147213902628101 1.317421072170927 
2.7434502254763378 2.336020893662663 2.2177586934019935 
2.7465484704029923 1.5067987518994974 2.0084090003884025 
5.499572743315975 3.971888614407158 0.3134814894832781 
5.501742116329542 3.8702239714568467 0.4656181972897398 
1.0109135921956687 3.094938620174368 1.618772110809178 
4.0006241878164905 2.3223118765219692 2.216654073692696 
1.2483440977943672 4.192952720765025 0.06186198763201832 
3.9998940127730025 0.244209657817102 0.3066816279388712 
0.7627205116600263 3.471500348553536 1.0714804299537821 
0.9968428502060446 1.9149604835967153 2.2272568242781228 
0.25652441722454994 0.5086917585700406 0.7321389869286737 
3.7462396912179443 2.9501735933782647 1.8754564032297834 
1.7576013142451516 1.111287703620514 1.6022299241037896 
5.744608697883543 2.2948507399563765 2.2309415806228143 
3.003408176639881 3.2990777519510384 1.3181295944975218 
4.7597854305776455 4.226960413600499 0.09652200070988816 
1.5026423895712684 0.5754976605129924 0.8116963509665942 
0.7472120032284649 3.5005638090869042 1.0080212639462993 
2.005283783983537 0.0415133834221223 0.07328660862725651 
1.2616683981581251 3.4620241817963042 1.0698371007849314 
0.24909493235965754 2.6156765541410776 2.0491099590098822 
4.255859813693861 2.447639406149132 2.1540621271236344 
3.7585926229690236 2.632234028442774 2.041293417843766 
1.762748297561946 1.5986475653074275 2.0581206449493505 
0.5015445256492848 3.332974764120247 1.267573363484126 
4.7597854305776455 4.226960413600499 0.09652200070988816 
1.5051935631543722 2.315206408678652 2.2192232499398674 
1.7637595862917808 2.6734134337440674 2.018837219587887 
1.9946991364375335 0.10318588120395877 0.17533799854860252 
3.009887736963284 3.6840462275295263 0.7636665942520194 
4.261403057700663 2.9411020807618233 1.8713491456984754 
1.995541893084959 0.5408982532257852 0.7515955164812327 
2.495739186281324 1.536169278298551 2.0197045957222066 
5.996970273843513 2.816164318369647 1.9464717007911179 
0.7487469722137561 0.8812459510251589 1.2592480157707 
2.505057721969214 2.5772950551234106 2.084328484457856 
4.003318976513402 2.219594789701795 2.272399177762603 
5.50579604712818 2.16547771226466 2.3435536613727566 
4.010164421538044 1.6490622509866208 2.075911645822425 
4.7601888120130464 2.6133132715464633 2.0547068333637637 
1.251802917580474 0.15071076681245898 0.17677104673300598 
2.748925907216349 1.4348272795336903 1.9661664022677035 
0.2495361852952134 0.8547836580948258 1.2306304387903204 
3.9951450807930535 4.138997433370003 0.08149408892619803 
1.7534363453434956 2.8394132289740255 1.9310834539495885 
5.00903605849274 4.073626908336857 0.17827387552789883 
2.4990806299140726 2.45026732115277 2.160031782642417 
2.7550525100026877 2.1215779718721004 2.3399792305915685 
3.4947042888567594 1.3093906751571234 1.8877530814869525 
0.49919952414018903 0.6919364248114511 0.975431151471402 
5.005817643907227 0.49185824510310155 0.691094681696256 
3.497840597174952 1.4147588574497039 1.9613809101489126 
4.7601888120130464 2.6133132715464633 2.0547068333637637 
1.7598754819406603 3.469680486578829 1.05897432434339 
-0.0015052355446548236 2.8601545149827423 1.9298888675358532 
5.009816327151703 2.3553598963940967 2.190361669719067 
5.243880264221739 1.364713650337443 1.9332053618815253 
3.0046409449455074 3.911362541237554 0.4057297222288961 
3.999415629466787 2.170535686495461 2.335914833514608 
1.9957319374952243 2.230590961408585 2.26785787374343 
5.5048010868832895 2.963051508816501 1.8601615400856963 
0.49643644150076344 2.2378078581478578 2.2609178583509775 
4.999059546071006 2.1779791361848555 2.34195280130674 
0.4964260253666312 3.6547658147224436 0.8034184065539348 
2.0061056597833122 4.1576823043872535 0.12059504558255997 
5.503112025737925 2.669343019219351 2.024098626678995 
4.256069885656508 2.4697568437308877 2.139403156199297 
4.254143404472539 1.8263998403976731 2.1700929556700506 
2.0033652256215353 1.4525081560733293 1.9747485138122733 
0.250250981101347 2.728600474882094 2.004431979904913 
1.2514833296465235 3.1798688361161647 1.4832893841124093 
1.2497650234001703 0.8490374025061422 1.2058511960968272 
3.7583106790043272 4.162606142364404 0.11440085361917296 
5.996970273843513 2.816164318369647 1.9464717007911179 
5.767141194799229 3.4618987429791397 1.0864666034164232 
4.25751365995178 1.5388490520647242 2.022179196424339 
-0.002474803795066973 1.1693602259334805 1.747284013322639 
3.4871235509775556 0.1413022716350488 0.16021391196664705 
6.011774477780665 1.315289467524215 1.8980440570485104 
5.262415067863472 3.6196250343837266 0.8446904553028513 
6.005419380138281 3.6370394538762283 0.8178281785456988 
2.2552113750072946 3.1443699442259483 1.5496497142810646 
0.004238550655108969 0.9752581789742426 1.399833021982068 
1.5112923909806413 1.8129787536962618 2.1705595616464444 
4.259003897758079 2.6633943697994122 2.036629616049696 
0.24531322842508174 2.8123420673668615 1.9513030177846626 
4.003234869877037 2.4615098055898375 2.1459295439165054 
2.0082438170670223 1.0981194938163379 1.5719796666954022 
3.7520945282458937 3.5077034689267697 1.0125120514254566 
4.2567526070164385 2.4038731237725113 2.1718111563617226 
5.259011007190552 3.4925253993898493 1.0371357272478612 
3.0134729306109764 2.1093633023893634 2.3436504954414237 
0.4984364459871458 0.40717011432291683 0.5706965509691099 
0.49808827094784375 0.45698660248082545 0.621810642358591 
3.743858467520001 0.447560367795827 0.6318777813570607 
2.2503640103444598 0.6456874929465317 0.9075916488460695 
1.2639804629116225 2.7009360354479814 2.0219316737048434 
0.002775550903262734 3.2925037364127556 1.334381578151961 
0.7585150046043285 1.1498528491227553 1.7329531115885901 
2.005283783983537 0.0415133834221223 0.07328660862725651 
3.7658177194984925 0.8678622433041436 1.2375768780585206 
5.251519340900807 1.6188034403181049 2.0680095678330392 
1.0058533995627628 4.203418060404386 0.07297993302163279 
3.747387311898223 1.2741041348539313 1.8789986146978008 
1.2523605240493891 2.062255702951322 2.3387808174571165 
0.5073156676092271 1.9481592076830754 2.241566143680969 
5.243880264221739 1.364713650337443 1.9332053618815253 
0.0017178868516405411 1.5954963242360385 2.061051480547284 
3.2570219296872978 2.6764339082411177 2.019849088757915 
3.507869086844317 3.8175209501722467 0.5583017355294028 
3.7515877301361575 1.0209488884896456 1.4521618418865498 
6.008284472885915 2.3589281247547573 2.2086107626044207 
4.001452770229667 2.509693749633018 2.112844751917941 
4.254143404472539 1.8263998403976731 2.1700929556700506 
3.5093760780015733 0.3086784495544088 0.4274044468928882 
3.0118860083563277 1.9566609691343635 2.2538997669654077 
3.249344050459552 3.256855858115637 1.3881386670093068 
1.0100100445352147 3.081462372893322 1.6435630166547353 
1.50541243828782 0.8087744876855315 1.1738865711518838 
3.2598895401776757 2.031350512763202 2.3307707166294933 
1.7554360514657876 0.8533916992351415 1.2295781188550399 
5.24498317288618 2.7441378020868403 1.9952578397289662 
5.002367071642829 2.6853193925361962 2.0125990039445676 
1.501759738903607 1.8921006911378075 2.230026496228556 
3.5099670662850615 1.3387400040086144 1.9105744252361454 
5.2514512219833005 1.6963204962565503 2.103875882930406 
5.996970273843513 2.816164318369647 1.9464717007911179 
4.752319923238945 2.09833904822267 2.3384899745139247 
0.7626033841155045 1.2678172056371881 1.8703318281999124 
-0.0034848679553049116 4.056400637524069 0.2006695349607288 
1.249596447844369 2.0984768173698423 2.3337613948629605 
6.010427346991021 1.739342431925457 2.1323102021249984 
4.006832993809297 2.6311019052072915 2.044019101035028 
0.24726651672966968 2.7049949106370814 2.010728692440167 
1.5064001304229087 2.060909406659428 2.3361327394682663 
4.2534830002082655 1.4443973060983597 1.980428295578262 
2.502709964676783 4.194441174086355 0.06610393458279196 
2.254423933905748 1.6026241808915336 2.0551153568784084 
5.248638155201864 0.23096151775379548 0.3016102209453286 
1.9948789834754916 3.240897660935121 1.3971013065326878 
5.509580888677483 1.493405676904004 1.9971568690447172 
1.0110170309553432 4.179214740992313 0.07353306925040483 
5.001184891938251 3.36592070829883 1.2129724887513829 
4.25540196392466 2.2482018628743523 2.2616518965628436 
0.2573225841208827 0.3553090663986397 0.46386404232727085 
6.015477899556092 1.1175995049899334 1.6159937276954377 
2.755228062115358 2.7165318617070944 2.0089723539691615 
0.006825750488461812 1.057009588132933 1.5983285428965182 
5.505322254576723 2.424767281998958 2.1540675508679894 
0.5022841320535424 0.11352099006926834 0.1946929477690992 
3.256165453239024 3.6674069041144004 0.7730855877898591 
5.504948970745416 2.1225774046830668 2.3475493203622895 
4.508853446246923 0.8387277361606926 1.2063649139633759 
1.2523605240493891 2.062255702951322 2.3387808174571165 
0.5018715400386785 1.649717051514415 2.084100843155723 
1.9988974427413237 3.827032968870192 0.5319438299796916 
5.504331608597362 3.479179722012126 1.0538991127883863 
2.4979502350540703 0.25608997450526144 0.340423727506268 
3.010633995235383 1.1931753452270606 1.7526721690400617 
3.510206952424432 1.171119962078143 1.7463043337408546 
4.508578665229621 1.1181571002999489 1.605535896033365 
-0.002474803795066973 1.1693602259334805 1.747284013322639 
0.5073375146509679 0.23313804103036964 0.29324582595335147 
3.759417493377762 2.154358055765208 2.3345696262726485 
3.504484558231659 0.9562555839243662 1.3840280322265037 
2.747396261514892 0.48807912064026204 0.6675550572453008 
1.7584769250544174 2.2384813510594457 2.2661695269905904 
3.0033394545859826 3.882817081613034 0.4463704605927044 
5.753196814808999 2.3810923459659827 2.1813319966107816 
2.249530453681002 1.133546476153093 1.6318798895053943 
0.004835975096344166 3.401506988230715 1.141678977396418 
5.006516402622273 1.9834837705777937 2.2507639271949698 
3.752460322689117 1.416431185175318 1.9567943379052026 
1.7533680239320693 2.4603291636278484 2.1480442465937792 
4.255306997942656 2.0221014489097304 2.338985568288649 
3.50746322390156 0.6641577931971798 0.9473551587813824 
3.005531049905734 2.9187194813798842 1.880394933936937 
1.764450917881743 3.216877455442248 1.4510743390387126 
4.49679123140607 1.975759077332381 2.2500984753528277 
0.2552641422200535 0.32328058585773706 0.43708928563042543 
4.490968239981568 2.3908818489879473 2.179613524666908 
1.7451114415205071 2.9973739954817122 1.846298375932987 
5.997545910037296 3.579657233912253 0.9045818669613743 
3.7546391088317246 3.220208894097678 1.4248599449509907 
0.4922538756680876 0.10649730186179726 0.1766819649670606 
3.0033394545859826 3.882817081613034 0.4463704605927044 
3.0105745360984066 3.2578205748057423 1.3905123959380619 
0.9985803908422242 0.26271220040406784 0.35529111053920864 
1.7546901400543515 2.9328351718399945 1.882880704682915 
1.0038859415695376 2.3346253661516 2.210889031129411 
4.009664974598123 1.6963521876312342 2.1067003565404527 
3.5128789768187145 3.584245665885273 0.9039335281084987 
2.255037217843055 2.29413453384887 2.2373423207846717 
0.004977404538563405 1.8240145660928042 2.1754489626504765 
5.011806662436272 2.1781234749895186 2.3406801241641237 
2.5002667517573456 3.505931358138432 1.0265046308736847 
2.252270183455189 2.8721527901040638 1.912308004440713 
0.5090334736972405 2.7770426880972834 1.9689334017554632 
4.999059546071006 2.1779791361848555 2.34195280130674 
1.0027165423304107 1.9547741815618063 2.2544192587829617 
3.0155957031490237 3.7705524698810837 0.6198474468721613 
0.9899042484900814 2.433692307558996 2.1565431318718 
5.993260584867033 3.073446930457778 1.6451011611510733 
1.2640966053451035 0.5923554496419382 0.8370778176945378 
4.002512837781367 3.3188790731035795 1.2960798219650116 
1.7570309516695066 3.1796050394372246 1.4939277670748778 
1.762443281162376 3.776863363471236 0.5945067744653898 
5.996619044028514 2.569689224494942 2.0752546955691265 
5.503031049339704 3.4261129873036564 1.1313379474545784 
-0.0015052355446548236 2.8601545149827423 1.9298888675358532 
4.765473806797823 3.7193569942476454 0.6836519004646524 
2.997349518438015 2.387985784225043 2.1896234537832653 
5.508365091823509 0.06615932454742043 0.12231239779060916 
0.24531322842508174 2.8123420673668615 1.9513030177846626 
5.764442172011565 0.6492564488497116 0.9248324704377919 
2.505057721969214 2.5772950551234106 2.084328484457856 
1.5002597751282871 2.716149509411563 2.005013268171273 
0.5031885874885029 0.20606318061122245 0.2586734037499559 
4.989459029029129 1.0403208290315042 1.5017447803872555 
5.0119472786818 3.1931135293832456 1.462156702606246 
4.258902944429629 0.39259960557180434 0.5505692479244458 
2.254916735064451 3.859790291416261 0.488772607495585 
4.492211564444754 0.5096643031696452 0.7145295569817859 
1.0058533995627628 4.203418060404386 0.07297993302163279 
4.760169038119363 3.053111110143425 1.739367865697067 
2.5013570380669266 1.432336022728386 1.9648932125834866 
1.5059892066593257 2.9767989901210004 1.8557735119012377 
1.7477694664078036 3.125412536000533 1.5736420795992954 
2.0129177782264587 3.392049445794019 1.1828848430174987 
0.9943949360704963 0.09259961869409554 0.1658739033881456 
0.010317851408015572 1.850808704495066 2.193256472064315 
1.2471257360323382 0.22095333922532695 0.27203021719491277 
2.4924344745237352 1.4759143959678114 1.9887055104343612 
4.498108197748127 0.2963424107929702 0.3865352090101643 
2.495739186281324 1.536169278298551 2.0197045957222066 
4.497178969238565 2.390780439144986 2.171005253543938 
0.7460488305963513 1.0684302786794386 1.5473454733686243 
2.236220929969449 3.786694993461075 0.6055055802593933 
3.7515877301361575 1.0209488884896456 1.4521618418865498 
1.7503141397654143 0.36284486066948246 0.48796359144638896 
3.261668239559597 2.01966587451438 2.2642415997483036 
1.255548973812912 3.0504586561669016 1.7488203225838337 
5.00737600937528 0.3135159140551864 0.4125965891643262 
3.7515877301361575 1.0209488884896456 1.4521618418865498 
0.2573225841208827 0.3553090663986397 0.46386404232727085 
4.010164421538044 1.6490622509866208 2.075911645822425 
0.005482784526420455 1.9768258841969804 2.2625546641705134 
2.0044096782327743 1.8690824832709745 2.1938869888218955 
0.24909493235965754 2.6156765541410776 2.0491099590098822 
0.49743482122019267 1.6673882391174009 2.091901614079001 
5.990487593464577 3.882508474156169 0.4510786632073375 
1.2567461392998756 3.515328400085864 0.9925808846333851 
4.999678224775386 0.24216634290072617 0.32273169823732484 
4.2452844328692345 2.6526806876565017 2.042396900328207 
0.7605430721664085 0.999528524443464 1.4388239287248275 
0.9997971527066958 1.5984194337741582 2.06829371627221 
1.7494803712244722 1.720194985154906 2.1317564683719397 
1.0171031494914946 3.791952325850503 0.6021029259305106 
6.008700294459276 1.6384494821575895 2.076324867873565 
2.5002667517573456 3.505931358138432 1.0265046308736847 
0.2589360244106714 3.1009282274950336 1.6287491633429636 
2.2588698006751944 2.498447004518486 2.132613942824963 
5.244054267241257 2.1233735915527863 2.3378975842037044 
2.249530453681002 1.133546476153093 1.6318798895053943 
0.4964260253666312 3.6547658147224436 0.8034184065539348 
5.508664622132091 3.970343933375329 0.3245836026784345 
0.512376459588256 2.7427383255136704 1.9870275858901427 
3.251565999903936 1.138678634239155 1.6393872835990457 
-0.0023708728914275134 3.930928760848029 0.36315016480033163 
5.5048010868832895 2.963051508816501 1.8601615400856963 
2.5078894139089782 2.8911842789078896 1.8924307614065312 
2.5076681700494405 2.7080288726893507 2.003325857534885 
2.7515136925247985 2.6866319385642172 2.0186887552324895 
4.507147686439986 2.3947687574706586 2.1802252975863214 
3.5009848682303395 2.6078190389733624 2.069517045166697 
1.2566924399710557 0.2077118911486977 0.26760571057092214 
2.7585396047999926 3.716786321480689 0.7130368584092746 
0.7460488305963513 1.0684302786794386 1.5473454733686243 
5.258935979338347 4.201749265077101 0.04715152761658627 
3.5009848682303395 2.6078190389733624 2.069517045166697 
4.013361833539551 0.18283892244249403 0.2205106154272167 
3.253234911987195 2.3020525729658416 2.231949369849457 
3.495569044838103 3.755313129113921 0.6341054756438459 
1.7492815107965187 2.932233420958147 1.882149388488498 
5.50579604712818 2.16547771226466 2.3435536613727566 
1.5064001304229087 2.060909406659428 2.3361327394682663 
1.2536025366639192 1.7398070260424014 2.1353486921690688 
3.7604632935717914 1.8689323486560832 2.195840051776818 
2.7471952100923565 3.998644434240142 0.2842663701864153 
3.9951283398432653 0.34268947311946724 0.46048370310339803 
0.7627205116600263 3.471500348553536 1.0714804299537821 
4.503459873943705 1.7885375214209354 2.1608077548209166 
4.999267484753918 1.954574799957551 2.2366658053991184 
1.7451114415205071 2.9973739954817122 1.846298375932987 
0.7546170099053638 0.018789642713809927 0.06810030541670987 
1.2484140455625776 4.220164256628121 0.037536215206416555 
4.511510948450608 3.2396699270830873 1.4204304774512686 
2.9929992297317103 0.7730774912325952 1.097921593501876 
2.244952055101967 1.3256451214859857 1.9101857001053935 
4.999112379842 0.08960650085278156 0.16696449809154681 
4.253396441184616 1.7302428830405758 2.130853546965907 
1.4951947696407353 0.9147213902628101 1.317421072170927 
2.51451115836708 3.9324497439077897 0.3782073306215636 
1.7504075405251103 0.5887218083381134 0.818264357847232 
4.754694997888454 2.8831017101777157 1.9028593774537697 
5.497983956292547 1.5369234007297972 2.024029075893007 
3.2508561079585445 0.9391369391110409 1.3438829105123633 
2.7569059403052885 1.5057415444756133 2.006797876654061 
5.008762050630469 2.7976487981172964 1.9640642642048622 
5.49928075170901 2.358474021814863 2.213239643601057 
2.258368911175953 3.8027653261011882 0.5602654613724537 
1.2567461392998756 3.515328400085864 0.9925808846333851 
1.2616683981581251 3.4620241817963042 1.0698371007849314 
4.005343947871681 3.2569774001695655 1.4030709406867683 
4.506623167477142 3.1594735630399917 1.5139348900147767 
1.7536046818565092 1.6619248529884885 2.0886065317464544 
0.7507393975288277 2.11403434517753 2.3461673393818536 
2.7599864393409774 1.1835309274502654 1.7439058636790308 
3.0040203415925943 1.687977851731831 2.1113407143307965 
2.744476966201659 3.265080513174533 1.370332760757103 
2.5002395626773337 2.5427451224318833 2.096640912401652 
0.516012096375514 2.669783273768012 2.0355126953432046 
2.0120675983804714 3.8869104544891457 0.44559746330831734 
4.253437394916492 1.2514822055962018 1.8658139328046388 
6.006769736578209 0.2907370027989578 0.37499311507001626 
1.2557225497065105 1.0619822994160286 1.5259158532819372 
2.996008102064862 3.4548104584846473 1.091051502555885 
0.25620168501534013 0.7501501416742393 1.0791502751252502 
5.752119572625043 3.4314384739188566 1.111992452383327 
6.006769736578209 0.2907370027989578 0.37499311507001626 
5.744608697883543 2.2948507399563765 2.2309415806228143 
0.006372194968948173 3.2771571994069424 1.3488959301398775 
5.010325458132044 3.535757544231705 0.9648625793523449 
1.2477911373605448 3.683470179293588 0.744143702888571 
4.757003305366734 0.716601427325831 1.0189906086212976 
0.7575658276475918 1.9548973184154856 2.2569444041332947 
4.992784921166364 2.5641568727390487 2.0936900964473963 
0.24909493235965754 2.6156765541410776 2.0491099590098822 
5.75851334224097 3.385417564086408 1.1985021553380644 
3.495319168036634 1.9229836952332882 2.2290210862791278 
5.493839414031154 0.8387472967305172 1.1968459388341606 
0.5018715400386785 1.649717051514415 2.084100843155723 
2.498851008408968 0.85751280574913 1.2231702994862668 
4.248794969664726 1.7722333644806585 2.1368236123436803 
2.7436316834544856 1.0388336941323777 1.4971818897588824 
2.259797717632966 0.47588856658534356 0.6720963614754042 
2.00267465801978 4.03864535679504 0.22334183500530755 
1.0027165423304107 1.9547741815618063 2.2544192587829617 
5.503664487370936 3.5038479131750644 1.0159520367654717 
4.999583176838144 3.664243706589688 0.7666632087893659 
5.265920971540615 4.193436579064195 0.05773836490352194 
5.012552015228216 1.0355058396457273 1.4950034564474672 
2.7583597873619348 3.277524647501501 1.3629930947843498 
0.7430324615069881 2.5223682410082127 2.1124928779467687 
5.2473332274512146 0.5568528906476583 0.7725984084691491 
4.504412657221926 1.9506479734838569 2.2528617291495543 
4.001452770229667 2.509693749633018 2.112844751917941 
3.509476985648813 2.8115600175030417 1.9358013740353832 
1.7494803712244722 1.720194985154906 2.1317564683719397 
3.7585926229690236 2.632234028442774 2.041293417843766 
5.259114826484822 2.029412249962175 2.3352443897310535 
5.508664622132091 3.970343933375329 0.3245836026784345 
5.502079767166542 0.9775383793710609 1.4043561498010613 
2.016168591680648 0.3803647078774452 0.5057718143432252 
3.75735269890758 3.424556538510184 1.1451028396888794 
2.7471952100923565 3.998644434240142 0.2842663701864153 
0.24902083720608986 2.193212589502933 2.267274775797687 
1.9970863183310072 1.7993876820393917 2.1565456372282066 
3.0080338047308848 2.5793897695001013 2.0679408222809874 
2.0012624295625603 2.767860929453287 1.9735185851484756 
4.012554553499882 2.8880317267943783 1.9017787247504332 
2.5031670540421644 0.1865078482043709 0.2214505901891138 
0.7558083476239708 2.880526547794417 1.9139761849920824 
3.497840597174952 1.4147588574497039 1.9613809101489126 
4.4981271183097515 1.3572608007354772 1.9277385664413524 
5.497941005745272 1.1204778428213202 1.608941478064575 
2.7625559845861467 2.471923239910452 2.13835827653177 
1.5078857035543614 1.4464070044664132 1.9684422052957133 
4.740531235119212 0.12015488691512091 0.14263808185764448 
2.999202777794634 0.7075375015307355 1.0040380318103888 
1.2523605240493891 2.062255702951322 2.3387808174571165 
0.24067230406625217 0.30393282243572867 0.41375864062032547 
0.4972863125175474 0.4728413626124537 0.627118584944598 
4.999267484753918 1.954574799957551 2.2366658053991184 
4.756338033580223 3.7206866200493147 0.6946426145360212 
4.006048762950453 0.929296598207567 1.3432738337531411 
4.241698196940873 3.2870881491267445 1.337021763258349 
1.0050757547715186 2.8090615308659292 1.9424565305956698 
6.000743131924885 1.3048001867412145 1.8959594560528281 
0.2636987163475693 3.900958861857053 0.4240611196230809 
0.2520307045546809 0.10115365196109317 0.17171063980727763 
4.264876141225608 2.885231847795009 1.9056012852612956 
0.7571214028906631 2.821145966839556 1.9420435082117002 
2.9993972791543597 2.1029906519305293 2.355684651069037 
5.7525416833139005 3.247543948701641 1.390908523009579 
0.9997971527066958 1.5984194337741582 2.06829371627221 
4.751305094089767 2.8080343529218377 1.9606745271451818 
0.0019451251012017668 2.0310473261921147 2.3329624545636984 
4.003026262172391 1.3765964648645312 1.9273905648505834 
0.747213287599201 0.5918681444059981 0.8192709327032475 
1.2454832067539194 2.166772949199963 2.3426822102585128 
3.7533744827086855 1.6401288529694473 2.0815296677362394 
4.0012522174037555 3.573261955163524 0.9214463351329638 
2.999202777794634 0.7075375015307355 1.0040380318103888 
3.2598895401776757 2.031350512763202 2.3307707166294933 
4.754453064715139 1.8782897094567272 2.1999606902716766 
5.743006034960355 1.3612312055951603 1.9185632046231111 
1.4984222724674683 0.8914345900531784 1.2866683724773464 
3.757087080848075 2.659188897870049 2.035766145717687 
0.25336282803525684 4.130196001704042 0.1362421883436651 
3.005942125006203 2.853207482113306 1.9256127085503456 
4.749392026836127 1.955064195216673 2.249156876936203 
0.7481798037680814 3.3304736366999843 1.2755200226385102 
5.750625993664389 0.8378928540255222 1.2004323465598115 
1.7523992224613902 3.601712789625528 0.8541326993789539 
1.5051938479409062 3.8335613154112633 0.5211332581078449 
4.747931973544436 0.8210512263376035 1.1725474530136764 
2.002705484403251 3.7805740603494082 0.6145181780368556 
3.4994737650800753 2.7611990836794833 1.9691059900039438 
5.750175528266932 0.5976389204182074 0.8399890478502219 
1.5137619065462833 2.6922015582607934 2.0135407254932915 
6.009322832433944 3.6963052095630826 0.7374990542458002 
1.0003749129151938 1.041334786920257 1.4769010620084935 
4.264414165063974 3.2872270998800714 1.3300996491991943 
1.0003749129151938 1.041334786920257 1.4769010620084935 
3.5008238683199995 2.0901334207275712 2.343354107797258 
2.7569059403052885 1.5057415444756133 2.006797876654061 
3.495319168036634 1.9229836952332882 2.2290210862791278 
4.497178969238565 2.390780439144986 2.171005253543938 
1.246461454734991 1.5575302398343451 2.0361101485678286 
0.49743482122019267 1.6673882391174009 2.091901614079001 
4.002192398868238 3.699375934831963 0.7425080521167822 
2.7476080438074226 0.5014334238530055 0.6993850400236559 
3.756795659575818 1.951933446957073 2.2489473001950215 
2.755228062115358 2.7165318617070944 2.0089723539691615 
3.7490084495054496 3.535696009087546 0.9751405738539621 
-0.004383061089934614 2.9066907814757763 1.9113579123281457 
4.2608127050172175 2.501667616543163 2.1278731711639693 
3.4976131896891576 1.3798283550937704 1.931851122588348 
0.7627205116600263 3.471500348553536 1.0714804299537821 
5.745442707504196 1.1101408914234738 1.5988725359716518 
2.755647025994748 1.8940157658641024 2.2089132102586557 
3.243824534933262 4.005258911599422 0.27913691477885866 
4.738639050875525 3.179485449566182 1.495226282205386 
5.999969046779796 0.7520743842751981 1.0771131135872434 
6.008290008020464 2.721770698879529 2.001734078775103 
1.246461454734991 1.5575302398343451 2.0361101485678286 
5.997592500691071 4.056941179803847 0.20496247901855325 
3.255656769541054 0.2215452683084448 0.28335433392837683 
3.7533744827086855 1.6401288529694473 2.0815296677362394 
2.0001902625413126 0.8590398050092907 1.226256655012301 
2.74409853293589 2.5663574515431877 2.08255033077921 
4.2534830002082655 1.4443973060983597 1.980428295578262 
4.26002971547125 2.17106814848611 2.3433487612109367 
3.007148777805869 3.7698953512275897 0.6093526117256236 
0.7585150046043285 1.1498528491227553 1.7329531115885901 
6.006362639512248 2.9204142158785262 1.899825373898746 
1.2454832067539194 2.166772949199963 2.3426822102585128 
2.502524576543987 1.7981813783276837 2.1704062233879253 
2.26357123181228 1.3476956735937038 1.9151970779055707 
3.7465025288626768 2.675642146511603 2.018136001680409 
2.752767127698 1.1535894448952646 1.7286340063988765 
2.9997054130823315 3.6725080001850547 0.7724004703931409 
4.511510948450608 3.2396699270830873 1.4204304774512686 
4.270917844563821 0.5778474276796925 0.8010161357269286 
3.253234911987195 2.3020525729658416 2.231949369849457 
2.997480498452635 2.3966895349100104 2.1581601895980422 
4.994255026572456 2.662918285360634 2.037316389302355 
0.00468775458784282 1.21966508706437 1.8487277825295472 
0.7568540101920386 2.7778396599197874 1.9835675548857867 
5.267755969254152 4.158833092539352 0.12109779668237693 
0.25305824255038656 1.7524874190302946 2.138514309963336 
3.256165453239024 3.6674069041144004 0.7730855877898591 
4.999267484753918 1.954574799957551 2.2366658053991184 
5.510420153487397 1.9447877058242249 2.2339079516223848 
0.7481798037680814 3.3304736366999843 1.2755200226385102 
3.9954613438447777 3.09780294564127 1.612268179511015 
3.514917963514538 0.7902796163322395 1.1462126226679428 
3.5009255346896464 0.5372788022709444 0.7525119776670968 
3.2554335329209696 0.30990931328266724 0.4100507741574652 
3.752460322689117 1.416431185175318 1.9567943379052026 
4.999678224775386 0.24216634290072617 0.32273169823732484 
0.7575658276475918 1.9548973184154856 2.2569444041332947 
2.50294029857216 0.30659390293598887 0.41735949676531847 
4.74784330159023 2.5656740022027607 2.0927785736623448 
3.7540224342990034 2.7328934919057475 1.98659441182505 
2.7535567361475284 0.5912176433736143 0.8221067399065101 
3.0105745360984066 3.2578205748057423 1.3905123959380619 
5.50696024337753 0.6678685162595143 0.9295676170182164 
1.0026001864359604 3.8037339545375928 0.5601724467803009 
3.2456792545206947 4.137278594850369 0.05955076616394232 
2.5023081024583114 2.2945269136500714 2.227835287136563 
4.7498133219466805 3.887263584914455 0.46063802096657663 
1.7549502822768723 3.2051524824845226 1.4594327142903476 
5.750046394739877 1.2720528914734202 1.8799244618699364 
1.005720674408152 0.14536342419447695 0.1812283513218401 
5.750214111608237 2.9519487457345712 1.8768203318614753 
0.49553046814894236 0.6341208705966889 0.9015422531632173 
0.2586004339211084 2.1753838662103036 2.3437899658213737 
1.9886154108636123 1.9930758411252223 2.266112770204471 
4.494989799710919 0.5618101446917368 0.7753296221849028 
1.7549502822768723 3.2051524824845226 1.4594327142903476 
1.0018401718504035 3.0364776873211943 1.7585398663228577 
2.246200421403999 3.8027633776796836 0.5773983082116382 
2.5023081024583114 2.2945269136500714 2.227835287136563 
2.9974567499510614 1.2585602786280374 1.8589184457618453 
2.236220929969449 3.786694993461075 0.6055055802593933 
0.5011844965725725 1.6389558346585846 2.0652413760230632 
5.248638155201864 0.23096151775379548 0.3016102209453286 
4.7523818042697155 0.6411649335054082 0.9226854117556857 
1.0110170309553432 4.179214740992313 0.07353306925040483 
-0.005860971766452677 4.167182866045297 0.0781037542395268 
0.008594918907139705 1.8973068684857568 2.2066577333836017 
3.510341916421151 2.1467078622568367 2.3441182904492015 
0.2477083177954669 1.176801992997015 1.7437835120156566 
4.738639050875525 3.179485449566182 1.495226282205386 
3.7563156672448774 3.1343848879306053 1.5568482436004218 
2.7585396047999926 3.716786321480689 0.7130368584092746 
3.488447109837826 3.9122327388136906 0.4094752133296222 
2.7517612735016295 1.970908890180971 2.2716882823658984 
2.7482096634928577 3.699202897092943 0.7384722823356569 
4.2427494440127145 1.4704013046989632 1.9887188830917641 
5.506061803923636 3.4131028806782933 1.1332091815964205 
5.754055459539988 3.423352774549737 1.1403275003738855 
5.750128709845303 3.8357836223554864 0.5296431236344223 
2.2468067320031784 1.941577860225634 2.238735291638295 
3.000866815947195 3.391498429120252 1.1845611625851575 
4.248005325719418 2.1616656403029384 2.3393835034562622 
0.9973770129927223 1.4118481264067277 1.9552613664261904 
5.749834083303815 0.01952059416117322 0.061047709996418204 
2.2549863925432865 1.5593289361799734 2.0263016414165134 
1.7549502822768723 3.2051524824845226 1.4594327142903476 
-0.0032040847538842053 1.0938616395419647 1.5804303423165191 
1.507953294748604 1.1253087463781473 1.6291479898244372 
0.7472206701714934 1.829573473110432 2.1768829054027505 
5.5052317598437055 2.897671604311202 1.9038084097692318 
2.7617189619232505 4.0485393877691624 0.20821852311270506 
4.749749298408703 0.36803277118648137 0.5108942539156747 
4.005886613873939 1.501177986225609 2.002954291126861 
1.740181629899173 0.7428101655148357 1.0616097627307692 
5.012277185270392 2.404173363999961 2.173981013330493 
1.0076188682890097 1.5412215838985432 2.027214392640059 
0.4968777354668286 1.2704016932070894 1.8799611537849972 
0.7472206701714934 1.829573473110432 2.1768829054027505 
1.7534363453434956 2.8394132289740255 1.9310834539495885 
4.0138573159021655 1.1355681368094612 1.6575854151335756 
1.9996513352230831 1.5944218091715332 2.059137815925239 
3.755051281034444 0.8606850239047933 1.226264629053019 
0.9985591542614662 0.9412139263417797 1.35080558410242 
2.516960618141691 1.132779061137788 1.640472434522201 
0.4968777354668286 1.2704016932070894 1.8799611537849972 
2.495739186281324 1.536169278298551 2.0197045957222066 
3.747557568897036 0.08243006443877757 0.14015581497806795 
6.0055069098471705 2.900586607705962 1.8971529749024907 
4.759820756657315 1.7846675293840508 2.146540278931361 
4.006113770971599 2.077636058355783 2.3409061171377976 
2.7585396047999926 3.716786321480689 0.7130368584092746 
4.264876141225608 2.885231847795009 1.9056012852612956 
3.2486308792371847 0.9535388770700157 1.3832400786701649 
1.7471327628040128 0.5909202847148353 0.8254890745410542 
4.000379165649832 2.6803751856987614 2.0168546221897117 
0.2589360244106714 3.1009282274950336 1.6287491633429636 
4.503798195788108 3.4581684026752466 1.0931468563316915 
2.5023081024583114 2.2945269136500714 2.227835287136563 
0.5052698693747545 3.3722786411237298 1.2115532479422249 
1.2516656667584771 0.3546093491135604 0.47665210851054274 
3.509083706333626 0.7626090151634394 1.0813351159694489 
1.2517616142500405 3.8306992327857037 0.5275514559428434 
4.508178406856025 0.09375074326069852 0.14307932787623961 
1.501759738903607 1.8921006911378075 2.230026496228556 
4.754490830122143 1.4153258666795905 1.9426572288550168 
2.7550525100026877 2.1215779718721004 2.3399792305915685 
0.24067230406625217 0.30393282243572867 0.41375864062032547 
5.253106012445234 2.170675703975304 2.357675302570843 
0.2552442263174145 4.149302036263492 0.07227628837661582 
1.5002597751282871 2.716149509411563 2.005013268171273 
2.749165934532745 0.8826096045047062 1.2633955331128106 
0.24726651672966968 2.7049949106370814 2.010728692440167 
4.006366917808921 3.9680739811072483 0.3277294640227843 
1.0000387293180684 1.7298015668264493 2.118648118524553 
0.5098071355595888 0.9239710590950415 1.3124884433503048 
4.247566991847816 2.452579480493721 2.1391513155291073 
1.7633661852526332 2.50553713288826 2.118412493184824 
0.5034395302309533 2.2177856615214604 2.2672221070789593 
1.2608632306486638 3.9273118412570525 0.38554706602297123 
4.508578665229621 1.1181571002999489 1.605535896033365 
4.500667695386817 3.7682501176240155 0.6274480865314532 
4.2609155258649976 2.8610505049921926 1.9293404415801905 
1.2536025366639192 1.7398070260424014 2.1353486921690688 
3.2485838388064194 1.944593577534206 2.2370718353992562 
3.0105745360984066 3.2578205748057423 1.3905123959380619 
4.002003364436809 3.8298881116559196 0.5381468880371882 
2.7549551687735385 2.3925448341206463 2.1746706821964197 
4.494989799710919 0.5618101446917368 0.7753296221849028 
1.501200937966269 0.5113071933219365 0.7058740440505923 
4.754490830122143 1.4153258666795905 1.9426572288550168 
6.004729761396238 1.8255323249272444 2.190160813567713 
4.5097282817498865 0.9470577084871611 1.3521906599373448 
3.012555035917544 1.1116909888761914 1.6190997428162373 
0.005009047512307484 3.9174127364932416 0.40974790197784094 
2.2549397547021406 3.319773010805196 1.2986065875605801 
4.74826483853514 3.0387904424939225 1.7546478520805682 
1.0154290921157316 3.134076128234193 1.5647178604803078 
4.507554342427615 4.200028594139949 0.0617092747662665 
4.748861046573635 2.7860446055490744 1.9676980201551302 
0.7546043916035565 0.13614926574044742 0.14911281338769278 
3.4947042888567594 1.3093906751571234 1.8877530814869525 
2.751630717847985 3.1866604869029924 1.4914815121804013 
4.75229567495415 1.4581127313495637 1.9809359287509294 
5.747611684649794 1.3924385407702613 1.9354974946754835 
4.503798195788108 3.4581684026752466 1.0931468563316915 
3.754654761638136 0.11508499752225736 0.19460217107534886 
2.51451115836708 3.9324497439077897 0.3782073306215636 
2.246200421403999 3.8027633776796836 0.5773983082116382 
5.251933135861142 2.0503706464115834 2.35367766546476 
3.9990436131616276 1.397820613284941 1.9386167909918912 
0.9976838196408379 1.4560132240328414 1.975854650078809 
5.999589486433736 3.21971659348473 1.4431351338389373 
3.4957898576149513 2.754330755863132 1.9761939225579157 
2.997480498452635 2.3966895349100104 2.1581601895980422 
2.9929992297317103 0.7730774912325952 1.097921593501876 
3.253234911987195 2.3020525729658416 2.231949369849457 
-0.002980770031604029 2.9477561973323367 1.8680044078267037 
4.250556033823462 0.45839624007591245 0.6274776990921369 
5.506160431581835 3.3941084969102273 1.1901872687029005 
4.2534830002082655 1.4443973060983597 1.980428295578262 
5.756011182574934 4.013843795176163 0.26277431917837457 
2.0044096782327743 1.8690824832709745 2.1938869888218955 
3.0105745360984066 3.2578205748057423 1.3905123959380619 
4.498437295605956 3.2384182687061687 1.3956038573158904 
0.49911949688025575 3.6975101921718347 0.7333495775873877 
3.012555035917544 1.1116909888761914 1.6190997428162373 
4.500774669274935 0.7487069431232557 1.0644820853867138 
1.2494589870244805 3.944553285752166 0.3601708045681348 
4.264876141225608 2.885231847795009 1.9056012852612956 
5.511349579393745 3.2788870798427734 1.3520387715150664 
5.771699445641695 0.7995332289380633 1.1422710524051254 
6.00786018936539 1.9381054974986387 2.2411589488254773 
1.5064001304229087 2.060909406659428 2.3361327394682663 
2.016732484263866 3.633628288629834 0.8198856041331702 
5.492541518487222 2.5487513880668904 2.0960792683944467 
4.508853446246923 0.8387277361606926 1.2063649139633759 
2.5002395626773337 2.5427451224318833 2.096640912401652 
3.5033864802595795 0.3714589066820075 0.5114765766737904 
2.012419935596597 1.8740564532138626 2.2105071456557583 
2.0023440764119735 1.270134381771284 1.879788138560898 
4.254986674314036 0.46669401234652447 0.641161098811595 
2.994892571497182 2.2901923509893996 2.2395407952826956 
4.496077704392189 3.608363416850756 0.8538060916260851 
0.9916422038968504 1.1179548613370405 1.6079266145339612 
1.995541893084959 0.5408982532257852 0.7515955164812327 
5.7640821245512415 3.651262284252776 0.7818859161384291 
3.4994838211552612 2.9489979491624827 1.867432416124895 
1.5002422083219884 2.615479316540356 2.059743759742694 
4.750978073720642 0.8284577414226575 1.1899989846854577 
0.002775550903262734 3.2925037364127556 1.334381578151961 
4.24900910785975 2.3281142300020163 2.2195289972617025 
2.4943176176372015 0.40729800367341773 0.5709775184944366 
0.018803613226674877 1.841411358521667 2.1892693724409917 
1.5039398165972535 3.6064705183934813 0.8628523244636241 
5.258935979338347 4.201749265077101 0.04715152761658627 
3.502645285441003 0.4442813979589743 0.6172700333390181 
3.25543304996471 3.496838361743482 1.0175268756803635 
0.2552442263174145 4.149302036263492 0.07227628837661582 
1.007390451846931 3.205566253319449 1.4595332428774588 
4.0006241878164905 2.3223118765219692 2.216654073692696 
4.263865198648814 0.49996231090543886 0.6894524623664 
0.24974025200576294 0.2269060444538825 0.2790916448640127 
0.49743482122019267 1.6673882391174009 2.091901614079001 
4.000518061834526 2.4482707805046307 2.1526997063567324 
3.25161663569398 1.69474919467802 2.1082222964828916 
5.510333297394734 2.5748954750652184 2.080953340998056 
2.498851008408968 0.85751280574913 1.2231702994862668 
0.7481798037680814 3.3304736366999843 1.2755200226385102 
2.005807685347565 0.8492649128076024 1.2158073927746609 
0.7582517637675005 3.4485201208927454 1.097879742903994 
5.9963422735232 2.7232890017913687 2.0052144426803746 
2.9970870629326782 3.316276941091461 1.2892577152644245 
1.0061845630924147 3.4327846471802284 1.126566957799198 
2.016168591680648 0.3803647078774452 0.5057718143432252 
2.495822263224387 0.29815982933966734 0.39304949491544067 
4.5055739251582265 2.1600765788535083 2.3502501856327305 
5.50372997868352 1.6557513768675105 2.091788989168767 
0.7501413322142865 1.148710614858096 1.7327494844898597 
0.5118430402419157 4.010445071878066 0.29284986429838905 
0.002775550903262734 3.2925037364127556 1.334381578151961 
5.494767046740156 2.2287208011438158 2.2738641040540535 
-0.0016899390305404743 1.5692206397279695 2.034948797886775 
3.261668239559597 2.01966587451438 2.2642415997483036 
1.9971306786512526 0.8167763377467135 1.1515815553790179 
5.00903605849274 4.073626908336857 0.17827387552789883 
1.757878121451329 2.368511759257693 2.189276736724455 
2.0048244959001362 2.962735948028922 1.8597166410758632 
-0.0019547216026568935 0.7657196790945567 1.1012154613545835 
6.001065879248947 1.6133913685857897 2.068198201582925 
5.250877159705159 1.989813299548705 2.2700817795646215 
5.503428234490818 3.3648582188840557 1.2269434813809748 
5.999664737582668 0.040450866605131225 0.07997855997082437 
4.999258742856481 2.1808599653058263 2.3364137504325675 
1.7549502822768723 3.2051524824845226 1.4594327142903476 
4.26002971547125 2.17106814848611 2.3433487612109367 
2.0122470947718116 3.1342598876975196 1.58058526588435 
1.2616683981581251 3.4620241817963042 1.0698371007849314 
2.0129935708486344 4.057876751388008 0.21567726836621573 
4.006048762950453 0.929296598207567 1.3432738337531411 
0.2536369870876366 2.8574837444742758 1.9206378775898374 
3.745858889460816 3.0330871616254473 1.7500142176860412 
1.5026593694535992 3.3951414964168647 1.1781237754693943 
0.49546364334505816 3.0241212920996197 1.7701941157333387 
2.7599043794670357 3.0050898680258955 1.8400020272315718 
0.0017178868516405411 1.5954963242360385 2.061051480547284 
1.5002597751282871 2.716149509411563 2.005013268171273 
0.25336282803525684 4.130196001704042 0.1362421883436651 
1.7504075405251103 0.5887218083381134 0.818264357847232 
2.7465484704029923 1.5067987518994974 2.0084090003884025 
0.5065321498437148 2.580286820237233 2.0779515114363254 
4.512872078151111 1.8608858813309797 2.1975828971099904 
0.9987879911418873 3.2351925184199164 1.4190464556798277 
3.754304452542056 4.061698928370505 0.17523658567432487 
2.0083339708672243 0.23059470658907688 0.2844786894374517 
0.7499046013643823 0.20548526427906746 0.27907092688488117 
6.019575625414103 3.4049015026761573 1.1604077132310213 
3.004500221551747 3.3193335537328523 1.2929078873990618 
4.2609155258649976 2.8610505049921926 1.9293404415801905 
4.508578665229621 1.1181571002999489 1.605535896033365 
0.7495566870840323 0.2575548894361199 0.338849164429919 
3.256165453239024 3.6674069041144004 0.7730855877898591 
1.246497459405671 1.6710521454161225 2.086103694172118 
0.756422667491861 1.1998544935781867 1.7504482457841835 
3.0155957031490237 3.7705524698810837 0.6198474468721613 
2.5120675663324197 3.1658722510182056 1.4995047771623353 
3.745858889460816 3.0330871616254473 1.7500142176860412 
2.750590526919772 0.6344067953540543 0.8902579895086803 
4.496080621556381 2.7218356529486956 1.992674289761937 
4.757925969705378 3.331649917548041 1.279037049937672 
2.0044096782327743 1.8690824832709745 2.1938869888218955 
3.502645285441003 0.4442813979589743 0.6172700333390181 
1.0103988718120147 0.3293231262766089 0.4577044686654085 
3.7598430588965916 0.8145716876785789 1.1605140018921123 
0.004835975096344166 3.401506988230715 1.141678977396418 
5.7552618739090695 1.2120165230467368 1.8394927666376333 
5.2514512219833005 1.6963204962565503 2.103875882930406 
5.504331608597362 3.479179722012126 1.0538991127883863 
3.510341916421151 2.1467078622568367 2.3441182904492015 
4.003234869877037 2.4615098055898375 2.1459295439165054 
6.011281006923715 0.5586456497237007 0.7707401651113878 
4.506371077834041 0.41742575153240496 0.5692161260144666 
5.253848086510265 2.445034203193745 2.157616119815158 
4.010164421538044 1.6490622509866208 2.075911645822425 
5.2639532669159665 3.5309481560194373 0.9725829161659815 
4.003234869877037 2.4615098055898375 2.1459295439165054 
3.7546391088317246 3.220208894097678 1.4248599449509907 
3.2485838388064194 1.944593577534206 2.2370718353992562 
0.250250981101347 2.728600474882094 2.004431979904913 
4.002192398868238 3.699375934831963 0.7425080521167822 
