0.504743066092039 5.063944224957071 0.1142209424406778 
3.7629309038770344 1.866724864525893 3.5243141673977916 
4.764828186034713 1.0993391253973082 2.0590504319384437 
1.509503758143596 3.920429515402247 1.9653082344586081 
6.254868967255549 3.7464741583443355 1.2082296761773177 
1.7466225465677894 4.0282243029404965 2.0657146050043624 
3.5071604228770834 3.6653983975107414 2.744654641194722 
6.003779047346221 0.5542853795642523 1.0481065143065245 
6.005882470258151 0.6770337571429427 1.2785457012983492 
6.507878508997005 2.4601421664004652 0.8633418419209328 
6.006571411195691 3.176663768420522 1.543154353544241 
6.509989078966712 3.4573061859919725 0.8523939081584171 
2.7482068701461064 2.503101448345658 3.6175548642874586 
6.504195307399712 3.5020328558822 0.8765880174869837 
6.25740292132578 1.5539141356772008 1.1864873586600162 
5.5027891155585555 0.7307158586187512 1.3652079302643685 
5.256513396288591 1.6429257649227529 2.5452247032171726 
2.5095488744258807 0.3883948086875919 0.7123445106089531 
3.2510055090060956 4.656341992270811 0.8830747260496218 
6.754559820925751 2.1106530348111874 0.5276845402691379 
0.25735427604642697 0.8363938495050379 0.2803277098343308 
2.9982956268631282 1.489265766900722 2.7997929751725414 
0.5062973179482635 0.46099329050574045 0.6139712988003836 
5.000431798279027 0.7591482100792218 1.4379422209325936 
1.7552952001695317 3.7443288811471085 2.2972069451970825 
4.509537331767542 4.238486545261118 1.6627201652232317 
2.0087469093826065 3.279068615900127 2.61521302280544 
0.004989054985272683 1.4812039269089623 0.020959888800856655 
6.5078204014800765 2.7019492192717545 0.8662147021582242 
1.7529707427653227 0.6240546747454162 1.1724782732315773 
3.5032520160678544 0.2701099342727867 0.5088471029940217 
6.005075650978178 1.6915375941399629 1.5457059105254143 
5.255374499457012 3.0539015144983104 2.5379271921942457 
6.009694733298761 4.635452004499856 0.9159467889820031 
5.0035295223682414 1.1746704424326895 2.2152501443272548 
4.506109503915559 3.3614780192090183 3.29699262634249 
0.49838844199401416 3.901094896665373 0.6004473786375406 
1.2526608615699615 1.899715111685274 1.6103776489350774 
1.756650804640349 2.522112359960082 2.28015033064128 
1.2439758413881563 2.855700872724572 1.605065099032728 
0.9986099332549833 0.8264679164101479 1.2950100735784151 
0.012956680728296772 2.647508825481455 0.03641617044317389 
4.4972704672325206 3.4161668807202923 3.231592188571787 
0.2548701218060791 2.176985391796189 0.2752605464887877 
3.754291227508892 3.005921331509814 3.970822262626108 
0.7586001662981681 1.6916836081792133 0.9532794985814813 
1.256999582683066 2.148446792857132 1.6069628006679402 
6.007800867081711 2.0745885902005474 1.5214227088838568 
4.508405021981069 2.4344647966542228 3.5421561900145973 
1.256666333541312 4.759275570202027 0.6794330033636238 
0.767190329743427 4.605891792177841 0.8745857573454289 
4.508405021981069 2.4344647966542228 3.5421561900145973 
4.005153994559721 3.513565703350446 3.033646287959216 
0.004989054985272683 1.4812039269089623 0.020959888800856655 
0.7461929365564405 0.6072927887723835 0.9904370486415074 
5.761965307246149 1.0555692568746307 1.9259240547366763 
5.256513396288591 1.6429257649227529 2.5452247032171726 
5.753858384675519 3.4198828972691357 1.8720865575141856 
0.7541048638099641 4.961956975710007 0.31761366582373135 
3.750387200625651 5.118449264593366 0.08913965726736717 
0.5014682489849103 3.3562639191597525 0.5909965351830307 
0.5039778383290384 2.61521163485737 0.6111268412470077 
2.252454836527591 2.190589036412522 2.9477761899437684 
3.254618491287294 1.2646632572647591 2.3802059607036514 
4.0002973749601205 5.146699659318866 0.0367955964334496 
2.0087469093826065 3.279068615900127 2.61521302280544 
7.005519772395089 4.886402891990591 0.19687684408604783 
2.756268054802452 2.188189307339193 3.6287249961539403 
1.4989181484867238 0.4212817161815129 0.7865155017634715 
7.012272038021242 5.1262650470896025 0.051354556789196364 
5.496753191796897 0.44745196788939495 0.8371821490803274 
1.9963957557178713 0.6758262142994964 1.2660139113783366 
0.7449796591992213 1.470410747377591 0.9310514292352687 
3.7508985299240503 1.1713694626150546 2.2082572631566175 
3.264529533776031 4.519547545467047 1.148941135452993 
0.5022279119918777 0.1567636206536272 0.29593381280600795 
5.256607324540706 4.079343707934356 1.9794898565051777 
0.4898033433399931 1.7597185310402619 0.6015965039807408 
1.7529168720945287 0.21708343596275012 0.44115126514943737 
4.501563442347551 1.9623634498925566 3.6059602799472703 
0.022299502114791876 3.2852476445884884 0.017889330233390326 
2.7482068701461064 2.503101448345658 3.6175548642874586 
4.498421059964903 0.23493447551475716 0.4523109857004664 
3.99506188428915 2.9112382688167866 4.142176489597364 
6.244307619652215 4.688226396767308 0.8289858537068509 
1.5199561445248446 0.9961539840788077 1.8718179082713584 
3.507263663832714 0.9773954407303456 1.8429960351868833 
2.5017912173354704 2.7640884650834128 3.297198552283441 
3.252491021658829 0.19447180686907542 0.37391442846711953 
1.007552818748303 3.0971756296262263 1.2936054621215827 
4.003411491344298 1.719575304746869 3.241715931943484 
4.755174976239665 3.4122150906770963 3.1171524929352925 
5.239923538552395 0.228891423461156 0.4473944776827106 
7.001717854105262 1.001105396747114 0.21293074622085936 
6.995588315327877 1.4789098872175472 0.20121134658583809 
6.50021859035824 0.16638856660465876 0.30201055687809436 
6.008348067392345 3.535554913094381 1.5326623730097848 
0.7510455340243422 2.631178690140101 0.9445503669674291 
4.993375252138092 2.556370985856502 2.8770928316790485 
0.7529935390623023 3.021872803119228 0.9516215038157292 
1.7547633013400143 0.06008485709393957 0.10463640758912891 
6.248648074566479 0.3779663347821765 0.7295731088082842 
2.75897779306874 2.0265960234296805 3.673881455386067 
4.7625264061895 1.0701013320528554 2.033432004061946 
2.0063904406043935 0.4812328647476217 0.9049705824720142 
6.258392138221071 0.36755040041958303 0.6973389298558396 
3.752633475458181 2.0344744364923613 3.8339375564764993 
4.750288433119942 3.4510445971428645 3.1192603924833575 
2.007811946663164 3.8153975913315437 2.453334072033018 
5.4966164979549985 0.10024308356703132 0.18338901357884063 
3.9973560378588737 0.6723310473494966 1.2713815709574612 
4.260785185885531 0.5782822790164391 1.0730379905445149 
1.9963957557178713 0.6758262142994964 1.2660139113783366 
4.761356973271815 1.4253545372495933 2.6976033840428624 
2.007811946663164 3.8153975913315437 2.453334072033018 
1.0009784983391532 1.910891143143006 1.2713873680763925 
4.2569167181114125 3.7745501753851443 2.523864614787669 
4.0040314604243425 2.9453845614096044 4.052839059481438 
0.010806424910276268 1.084235655849612 0.016908079929764456 
4.77090007971525 4.895635825817823 0.42855530788617674 
5.010671768004285 4.445811240289254 1.272261136958723 
6.000693199044479 0.841735382001903 1.461687306929641 
2.7462907837853905 2.3878907697212197 3.614933809590235 
2.2500011484689093 3.353784194644442 2.9448742015209604 
2.747786812111837 0.09540126469536579 0.19288463096599828 
0.746953433495085 3.0732311949905062 0.9500044002631606 
4.506109503915559 3.3614780192090183 3.29699262634249 
0.5089176386632195 2.6036457893551828 0.6055916953052569 
2.5047099675112987 0.6803306500286411 1.27909678358994 
2.242433641421465 0.021120129680325207 0.11321258714496887 
1.7571914894652354 4.373212188056216 1.4256721683577407 
5.509197532754297 2.5965151098064436 2.218925095468237 
7.00510795038241 0.018699106669713327 0.1077828155527581 
0.005800748500328968 1.7258012134488006 0.02069582017920395 
4.254542068807352 4.841974408999625 0.5448906939584958 
6.509370130406273 0.8993251384597567 0.8622540160769103 
5.249156539901066 3.9184596605021675 2.2822254152414483 
4.254200719792644 1.0027901829395023 1.8868940984931117 
3.009567955397626 3.0202224470044343 3.9557723120340085 
3.4992643424107084 0.20575355367595144 0.407749354949221 
1.010334776353627 4.717735361586994 0.7592943892502338 
0.9946217268976746 4.084968046794144 1.2887229638281783 
1.743477249138709 1.4610596657901376 2.279451036294042 
2.7646518856477744 1.5874828244096992 2.9896226244811306 
4.752684263927938 2.1422071116265458 3.208857562844776 
2.756268054802452 2.188189307339193 3.6287249961539403 
0.7596200654348318 4.590271415173773 0.8837562863018834 
1.253871595819686 0.6641395952992992 1.231701912663136 
1.7590346886839179 4.425847827700825 1.3072247230337903 
5.00575827087089 0.7288763245456122 1.3910566340725214 
6.509989078966712 3.4573061859919725 0.8523939081584171 
4.76677169290115 5.034120032844279 0.17486944735145926 
4.500964741379832 1.081002412501058 2.0399010714429187 
1.0041331138944147 4.833263938260262 0.5646052096750205 
1.7517629937121206 2.7603587818545625 2.2943044894548734 
6.260917747053205 1.6506601887960513 1.209552916805446 
6.507532365004744 4.024404736552354 0.8711786454857238 
4.499167423733687 3.3717938792228717 3.2739335595536514 
4.002955341412595 2.3479837271467656 4.290809204070183 
7.00510795038241 0.018699106669713327 0.1077828155527581 
5.004351193119486 3.4954955875349687 2.9296303942199913 
6.254868967255549 3.7464741583443355 1.2082296761773177 
6.756061399473904 2.1998262936162205 0.5454981189648166 
5.000588757257843 3.618364180516002 2.796878881663302 
2.2550992512610932 1.1298667301600323 2.135155097844691 
4.008450344525243 1.4876422931452087 2.796650090814024 
4.2630617574885035 1.4836238079406598 2.8054570784803667 
1.9915866842674597 4.140866160482466 1.8588346999840102 
4.49265335515933 1.0899714871718296 2.052620116371082 
1.7533661375261196 0.8182554021505752 1.5519521624662824 
6.500071531294257 2.3659401805323013 0.8754629349634444 
4.751307496152457 4.623917054828081 0.9340731806719121 
6.251565856914766 1.3002776915895617 1.2053321955934968 
4.25278580097295 1.6388356730584437 3.1038160867978166 
5.758495403781974 4.11183864059948 1.7914818927648177 
6.49998076569601 2.9319653621357338 0.8696558446086917 
4.254389718099738 2.957785268491267 3.9314770617167794 
5.761534421869642 0.46535748555609757 0.8890837157378381 
5.996671911482314 2.3097441773939598 1.5534587786858942 
2.749781274179849 2.256029595596667 3.6228067526369476 
6.249837450627149 3.7316252852260012 1.1908502343094662 
6.250829376792146 3.9093967648150167 1.203970111485992 
6.74963955612547 1.2685434306264678 0.5434551131894582 
0.5062973179482635 0.46099329050574045 0.6139712988003836 
6.265087024844693 3.2655223330955074 1.2019317064920507 
0.7538955772511312 2.9331279741894196 0.9412424409816449 
-0.0033322462760596657 4.879456558112509 0.020968675748946675 
3.0064040667818137 4.920987687617057 0.3909394513328554 
4.742362106631393 3.976879503745217 2.161082217791572 
0.49246359894455716 0.9719589517261414 0.6000199819282097 
4.261677380012471 3.8702489238161784 2.3678791447982372 
0.5023602416831567 0.5028819225660386 0.6189608368264814 
5.004351193119486 3.4954955875349687 2.9296303942199913 
0.9946217268976746 4.084968046794144 1.2887229638281783 
3.753221281324866 3.0699973997590617 3.8507368625306793 
0.5092196394594083 3.663032502304993 0.6111829707917101 
5.996417687476326 0.7932410691749006 1.4395450865216548 
0.2537594192705038 4.473974032685619 0.2756579706648804 
4.987802964854485 0.9699297271036021 1.8244497520706164 
2.9993754520473663 1.5974959393744514 3.0054142612062362 
1.7596530040826657 4.05953461846607 2.009652806339738 
1.7438904582176902 0.644183182857482 1.2250763733943315 
0.7586001662981681 1.6916836081792133 0.9532794985814813 
0.49838844199401416 3.901094896665373 0.6004473786375406 
2.251183976574012 2.5876694739871655 2.9438034308988477 
5.006852209507595 3.696389532842416 2.675545347191993 
5.504177153885827 3.3270454226681982 2.206160389209184 
2.02092923348426 1.5878512167054515 2.6301182894530473 
3.0002179946937133 1.9649282471892848 3.697355742643102 
1.5174278841778008 4.3594770199927035 1.452368438758767 
4.2535232945781765 1.169974769334879 2.204415599039122 
4.49265335515933 1.0899714871718296 2.052620116371082 
4.002483139870725 4.5723967472075735 1.0401267139965926 
3.0003150184080716 2.4030126491839994 3.9594548856991003 
3.0002179946937133 1.9649282471892848 3.697355742643102 
2.749781274179849 2.256029595596667 3.6228067526369476 
6.754559820925751 2.1106530348111874 0.5276845402691379 
2.5017912173354704 2.7640884650834128 3.297198552283441 
1.753489881690381 3.5793011877218808 2.2882182442881036 
1.5199561445248446 0.9961539840788077 1.8718179082713584 
2.5006391992015913 5.151167262688568 0.02949110436155332 
2.2638253497304412 1.4072804655943816 2.643985031561363 
5.75756292035493 1.5821302753302586 1.8685383025841793 
1.0110299939197132 1.534278043809862 1.285236229864367 
2.26629084578071 1.8493212456020325 2.960895946790384 
5.008222528307861 3.5894030313259635 2.8019885923398267 
1.5065909684802483 3.816337926161699 1.9562288312762555 
3.499338513485188 1.4400028969929841 2.731400649451781 
1.4981583831992804 3.78723883523036 1.9425414208192693 
4.746980751776387 0.31309368843085517 0.5855855700280367 
5.758495403781974 4.11183864059948 1.7914818927648177 
3.748358231744093 4.588128977429431 0.9932278840205397 
5.50093728937091 0.1895352166922544 0.36294420572933506 
2.0087469093826065 3.279068615900127 2.61521302280544 
1.7596353800465365 2.875400403527787 2.276645027046889 
2.7609273673238564 0.16015871460147216 0.3074655904661434 
6.748633493228849 0.5347200370232558 0.5400098788903825 
7.003272458267884 0.2606012573549687 0.2004443196426493 
0.7445283991902412 2.2363520920848217 0.9460592302723603 
0.4957039949733237 0.3648606461834025 0.5615906865756912 
1.259190139501564 3.811815765141332 1.6060167184767067 
1.256762847217065 2.038719617872106 1.6170441481409785 
3.2530619871756152 0.7686539879341815 1.4653449983440752 
7.0074893680123 2.8913238476527625 0.18674606272492073 
4.49265335515933 1.0899714871718296 2.052620116371082 
2.26629084578071 1.8493212456020325 2.960895946790384 
1.2513727151456806 2.369773955230238 1.60558873808653 
2.750954965207766 0.8242157518439248 1.5596889379380228 
1.9959938767836438 0.5614889295991786 1.0660065673361436 
4.757464813128781 2.0903508716325923 3.207232071787487 
5.259572496527567 2.499008697349019 2.5538907703292586 
0.9946217268976746 4.084968046794144 1.2887229638281783 
1.0110299939197132 1.534278043809862 1.285236229864367 
0.25710698226256307 4.238827306472825 0.2754541977157999 
4.2582773651729955 0.1609614529981138 0.3114251855595697 
5.239923538552395 0.228891423461156 0.4473944776827106 
3.5040980246527127 2.3282434230973306 4.378123397952248 
4.746980751776387 0.31309368843085517 0.5855855700280367 
4.749671088525932 3.166504557789215 3.2063242397432963 
1.5018942898067742 2.3125499687255755 1.9358879643337144 
3.510216794301398 0.03012230938909018 0.0631572371605258 
6.507027789377011 2.639575257199701 0.878681908006125 
6.754555984824674 4.676764107031906 0.5316599245758195 
4.242812712667655 1.7392151126757687 3.2746335816838155 
2.5102521524589747 1.6949498376590235 3.1542803779230173 
3.4992643424107084 0.20575355367595144 0.407749354949221 
3.0091529745785537 4.297673976373609 1.5623319753249008 
3.752633475458181 2.0344744364923613 3.8339375564764993 
1.5050458014464638 0.5124300081908114 1.0011382034985872 
2.7460059148845364 2.5111502729835604 3.6178603324536205 
3.493575515980152 1.9087577207048727 3.614479672306054 
1.0043509751051454 1.8783034466137207 1.2788587012555037 
3.2450084601630507 0.5711390562261986 1.0804996099308901 
0.9932310469314545 4.265983587509432 1.2766274072008608 
3.753221281324866 3.0699973997590617 3.8507368625306793 
1.9959938767836438 0.5614889295991786 1.0660065673361436 
5.25989955102341 0.8810994075612127 1.6548163608326254 
5.493281296180502 0.17471774899980966 0.3398843890226836 
2.496716765596513 2.273764117408421 3.2908837282899337 
0.5003444243196987 1.9904493213659564 0.6226743258119161 
2.0087469093826065 3.279068615900127 2.61521302280544 
4.2535232945781765 1.169974769334879 2.204415599039122 
6.995588315327877 1.4789098872175472 0.20121134658583809 
4.008450344525243 1.4876422931452087 2.796650090814024 
1.49624400735912 2.2459957913585313 1.9385913778496822 
1.7596353800465365 2.875400403527787 2.276645027046889 
0.2503964962380551 1.7526133395417596 0.2795012643254686 
4.497045865250739 2.307655038846216 3.5485191174046613 
0.5123382398829622 2.703418547217337 0.6113585927394094 
0.504743066092039 5.063944224957071 0.1142209424406778 
6.756061399473904 2.1998262936162205 0.5454981189648166 
5.260821093690119 4.532601261216346 1.1035683007911843 
5.761534421869642 0.46535748555609757 0.8890837157378381 
6.75631248435623 3.905228029654779 0.5429643178874652 
1.2584199383855055 4.91533721513854 0.3940770082162189 
0.49246359894455716 0.9719589517261414 0.6000199819282097 
3.0012031583322876 1.2824708544270285 2.4249435064678413 
5.253158281437424 3.5430099445472427 2.5458731079209116 
2.50083500252742 1.2953515414922192 2.4530504864555445 
1.7529707427653227 0.6240546747454162 1.1724782732315773 
6.005882470258151 0.6770337571429427 1.2785457012983492 
6.005628679670791 5.000803189989696 0.24541258976531471 
5.506875455442314 2.8873123790003583 2.200746859042632 
6.7640543959559345 2.9686265710124795 0.5250956320094218 
6.769261526220851 4.261385472634053 0.5328686048593576 
7.007301392871425 1.269939483220221 0.20393754218039492 
0.49838844199401416 3.901094896665373 0.6004473786375406 
1.5013219613658144 3.9823778418218136 2.0137394363007295 
4.499167423733687 3.3717938792228717 3.2739335595536514 
0.7449796591992213 1.470410747377591 0.9310514292352687 
1.7533661375261196 0.8182554021505752 1.5519521624662824 
1.9932663671624522 2.3818751482891067 2.62039115773457 
4.0048426641452375 3.327594404763817 3.373408680655278 
4.000415213117796 2.1773732599731694 4.068544678781907 
1.0058580553587704 1.1979118316155095 1.2713857879760142 
5.752441821511857 4.758858233404473 0.6829779568612804 
4.749671088525932 3.166504557789215 3.2063242397432963 
6.748985186746894 4.603660999504429 0.5301357618374926 
5.751045031589256 0.5432394987303454 1.0381341953807544 
0.24697238044311146 3.102109640128373 0.263798726859466 
0.7475291312335186 2.9964093378210204 0.9473798247440405 
4.003411491344298 1.719575304746869 3.241715931943484 
5.504371459736023 0.8620872558801883 1.609275513735254 
2.4956828391251085 2.077348657705121 3.286241769947266 
4.005727063210232 0.293276521325714 0.557173046175552 
6.7552736684993215 2.9375990823991356 0.5289746016539038 
4.2630617574885035 1.4836238079406598 2.8054570784803667 
1.5047507038124714 2.135309927588458 1.9512919372485678 
3.0052960572697436 0.389827658359661 0.7279497488513939 
5.01591463371605 3.688996255801621 2.71824341691747 
1.0143453479615454 3.2573625835616102 1.3010367917843602 
5.74096124236078 4.559534170164272 1.0626469021188085 
1.2439758413881563 2.855700872724572 1.605065099032728 
1.508359504337596 1.1002141595738844 1.9883268787118944 
0.9919173666074436 2.13169841373071 1.2812729279881598 
4.999623914497515 4.135047303450267 1.857917552071235 
1.2569528226691595 4.788979454111409 0.6326139513824764 
0.2575070435761747 4.758918711206767 0.2903910941364957 
3.5061663926209223 0.3848280930445749 0.7189684720265386 
1.7552952001695317 3.7443288811471085 2.2972069451970825 
6.007800867081711 2.0745885902005474 1.5214227088838568 
6.50397025325317 4.29055361125427 0.8614875416194439 
3.504090381205392 0.12187980351244791 0.2248027901878966 
0.2497010854411931 1.5090271939529043 0.2735367417851426 
1.007465395926874 0.2635213301718399 0.49838189830037355 
2.5003341677924644 1.237273786264703 2.3332566073780066 
6.74963955612547 1.2685434306264678 0.5434551131894582 
3.254618491287294 1.2646632572647591 2.3802059607036514 
5.514494305225942 4.233051776650941 1.6834527864262887 
5.495425402738801 3.655014224170021 2.216579469794859 
5.996306492954822 1.0450310137037437 1.5361017799665706 
4.261677380012471 3.8702489238161784 2.3678791447982372 
1.2441856698541711 2.4054524168281306 1.6010161199977573 
0.7544493263081629 4.633238321769875 0.8651654122789358 
4.763395543498101 1.1761360078471386 2.2331182766390802 
5.013537275365394 1.5348268083922056 2.8773263186384517 
2.9993754520473663 1.5974959393744514 3.0054142612062362 
1.0093200456258893 2.4927121549787183 1.2638783178002402 
3.750193468931432 1.987731771234198 3.7476689382947903 
6.500071531294257 2.3659401805323013 0.8754629349634444 
2.509561717303423 4.565623679478234 1.0428851116580482 
2.5095488744258807 0.3883948086875919 0.7123445106089531 
1.5079555221083571 4.15453836982548 1.8079136555110895 
1.0093200456258893 2.4927121549787183 1.2638783178002402 
3.5040980246527127 2.3282434230973306 4.378123397952248 
0.26128239473457177 3.2559226208118894 0.29494922877563207 
5.75406993844896 0.24687049082159118 0.4670675426823916 
4.006118488041183 0.5911346153536349 1.1156912533037866 
4.00327718520763 1.4346167140520918 2.7080389143894315 
4.256520057640143 0.09159358316448048 0.16811446560360085 
3.510216794301398 0.03012230938909018 0.0631572371605258 
4.0002973749601205 5.146699659318866 0.0367955964334496 
0.2548701218060791 2.176985391796189 0.2752605464887877 
4.006079495668709 2.8154346613911954 4.267225118064736 
3.5041412871250532 0.06766978728546805 0.1259287934418247 
1.007465395926874 0.2635213301718399 0.49838189830037355 
3.2513838183019588 0.7086683261027925 1.333141442062875 
3.759942908697151 4.825297446873668 0.5502747535616963 
6.241195096437418 1.483974856983931 1.2130720411254923 
3.504090381205392 0.12187980351244791 0.2248027901878966 
6.507212712688161 2.387916132485643 0.8732763014663915 
6.009553914035352 3.7864246548812663 1.547051419820167 
6.248648074566479 0.3779663347821765 0.7295731088082842 
6.769261526220851 4.261385472634053 0.5328686048593576 
6.254868967255549 3.7464741583443355 1.2082296761773177 
5.755448618836867 1.8337900096666921 1.861566611711316 
1.5174278841778008 4.3594770199927035 1.452368438758767 
5.254082388310873 4.119265149688133 1.8864328992466879 
4.498421059964903 0.23493447551475716 0.4523109857004664 
3.5086728120930935 0.8241653971317439 1.559655053753223 
6.51135124535333 4.193661271889134 0.8602629272289658 
4.0056494251422 4.832410597196005 0.5416753456911895 
5.008222528307861 3.5894030313259635 2.8019885923398267 
3.5150336592448554 3.4249414235024886 3.202625516662412 
7.008800915331953 1.2298033022457309 0.19755129022845763 
5.0153898865108575 0.6074366408960721 1.1500857228892252 
6.504121446460576 3.1421747360179135 0.8771095104661195 
3.001650234753009 3.382668851447138 3.2686322203002076 
4.25452512510999 1.5074061796529605 2.8302477056130373 
2.2478311229210477 3.8137332718719605 2.4776405933917593 
1.49624400735912 2.2459957913585313 1.9385913778496822 
5.763222831426049 2.2349992209513743 1.8804900363395443 
0.2503964962380551 1.7526133395417596 0.2795012643254686 
1.7529168720945287 0.21708343596275012 0.44115126514943737 
4.499167423733687 3.3717938792228717 3.2739335595536514 
2.496840679018402 0.5410015941695852 1.0302258267525666 
4.260785185885531 0.5782822790164391 1.0730379905445149 
4.2535232945781765 1.169974769334879 2.204415599039122 
5.509197532754297 2.5965151098064436 2.218925095468237 
0.7606629395293899 2.708873908267647 0.9351960656759223 
2.0059457899821553 2.760766580313531 2.6415385238430034 
2.761828810157981 4.956354857140735 0.31628891699945055 
2.243237180570216 1.635283011432926 2.9997723827737994 
3.4904854526933526 0.08981057791400143 0.1542351353661769 
3.507834979746606 4.74969897741132 0.6947453833409812 
3.750193468931432 1.987731771234198 3.7476689382947903 
3.510216794301398 0.03012230938909018 0.0631572371605258 
2.249468954201119 0.45402209699095253 0.8533130906788703 
1.256762847217065 2.038719617872106 1.6170441481409785 
4.0048426641452375 3.327594404763817 3.373408680655278 
2.9998924465789947 3.104180973572468 3.8020100499915035 
4.002778542775778 3.5413220756815247 2.9798437451220114 
6.007800867081711 2.0745885902005474 1.5214227088838568 
3.252439968871094 0.7778211695221835 1.4763540074615675 
4.77090007971525 4.895635825817823 0.42855530788617674 
0.5034402427917617 4.649781600497715 0.6161637134509227 
4.008450344525243 1.4876422931452087 2.796650090814024 
6.7552736684993215 2.9375990823991356 0.5289746016539038 
0.5004120761114147 1.5656767826493412 0.606947036933302 
2.5003341677924644 1.237273786264703 2.3332566073780066 
1.2616915926466956 3.001654797172134 1.6272124510211148 
3.2628170968726553 0.12264066812237501 0.22046714846566512 
6.259560642719418 2.7449382666844273 1.2068305079956956 
2.4964673510833117 3.9037907970247927 2.2924419007170918 
6.50660599212587 0.2695291020939088 0.5126826236578151 
3.500997305799723 3.377911028713463 3.2737976028579694 
1.2513727151456806 2.369773955230238 1.60558873808653 
6.2446693945945135 2.6945031629027216 1.2038068355134162 
6.250465959854927 3.8801776053122095 1.1950054709597862 
1.7542601005458751 2.0696816530953406 2.280107670659604 
2.746935271859304 2.010546701660122 3.6798564241646923 
4.002778542775778 3.5413220756815247 2.9798437451220114 
4.005420176267226 5.035924035185916 0.1371045712243158 
2.509561717303423 4.565623679478234 1.0428851116580482 
4.251708936665467 5.07202133525444 0.09261497857862651 
5.746416198283386 3.0399231078091042 1.8667869110230506 
1.005955563359631 4.82166377182312 0.5758859748872088 
5.496753191796897 0.44745196788939495 0.8371821490803274 
3.0091529745785537 4.297673976373609 1.5623319753249008 
5.002503503248009 1.7576076881840963 2.8787029371531 
2.011488374984913 5.098995697551787 0.10710612224586318 
5.255674390434753 3.2043800315821844 2.546779693943659 
3.256439767516467 3.445085228018797 3.1485524744037687 
0.012841824822247088 4.927232974549566 0.008702218376386324 
6.754555984824674 4.676764107031906 0.5316599245758195 
0.7548786631482172 5.026106841862166 0.20330034437480543 
1.7460271037682698 1.3067525022116253 2.340808157447249 
7.000171047420388 2.001930278769461 0.19829614230467488 
0.26323788843184515 0.8097042180935227 0.28188054494201087 
4.256421180880917 4.719200384265906 0.7743979932159987 
6.499266367730266 1.7011837473526064 0.86304580367824 
2.7472471597419985 1.2084036038435682 2.2623438863659526 
4.257654772365974 0.2241521236505182 0.41705868736248214 
2.256522099090568 1.7954202493336888 2.9488913175622824 
1.5125856671087654 4.18456085663733 1.7805069870257602 
6.751182238589002 3.2693978253891696 0.5375308996405074 
3.7624844717345707 4.624919823122945 0.938550268051847 
1.2522564875605664 0.06382456662707321 0.12396017954949622 
3.2522809840967155 3.690719009308085 2.684255893778009 
1.0050702958495752 0.5020093266909702 0.951328217267043 
4.001021773321385 2.408261260059216 4.217726414973181 
3.007445499086032 0.5639367473258706 1.0629470067482567 
0.9944178415935474 0.7640797963818676 1.3218607088154184 
3.753221281324866 3.0699973997590617 3.8507368625306793 
3.2504292912382873 3.0141888716407736 3.972191295106812 
5.010671768004285 4.445811240289254 1.272261136958723 
0.0001837048131343071 2.329071374015593 0.019733582736877184 
6.755288145589038 1.4023301685550358 0.5354787082739595 
0.9986099332549833 0.8264679164101479 1.2950100735784151 
2.0002966325882654 0.6333184994996482 1.2186729942530286 
1.2571811035932574 2.3576196788405808 1.6266762602328668 
0.5030422343685919 3.3982809576172395 0.604945892281247 
0.4983606578200198 5.157348176595797 0.07539163095194754 
4.2684740727537385 1.532511098579726 2.882185692569196 
0.9898518514622483 0.09829334567236994 0.19579189428471352 
5.012978096733655 3.5637522684529874 2.904552169117908 
5.753409774516356 1.7144922763775612 1.872665588854357 
0.7461929365564405 0.6072927887723835 0.9904370486415074 
5.505822496360016 4.282344584422684 1.5817450188603073 
2.4923877724129895 5.089959704980012 0.07300321347992997 
5.255794933007607 0.7324338662801151 1.3830317726342842 
1.5065909684802483 3.816337926161699 1.9562288312762555 
1.7488627738412093 3.6936719460404435 2.28139852003723 
5.7579822766245305 4.460665423114687 1.2498095035824068 
1.2441856698541711 2.4054524168281306 1.6010161199977573 
6.008856195688296 0.7004372772273856 1.3046254498045826 
6.504121446460576 3.1421747360179135 0.8771095104661195 
6.020992924107547 1.747409412849527 1.5333050026745891 
5.251282177963487 2.283259241166068 2.5327418421430083 
6.00581589077759 4.919373784660923 0.38740471677831445 
4.006118488041183 0.5911346153536349 1.1156912533037866 
1.2439758413881563 2.855700872724572 1.605065099032728 
6.258372098821363 3.002842220059177 1.2128488266044903 
3.750387200625651 5.118449264593366 0.08913965726736717 
1.7466225465677894 4.0282243029404965 2.0657146050043624 
3.4992643424107084 0.20575355367595144 0.407749354949221 
6.251623698965797 1.8112108280576409 1.2185197444397948 
5.257846702867422 3.350438809300136 2.5407062935635647 
3.7500330532482296 0.4735529949364324 0.9091002931252158 
4.008573918643662 0.14043765219280147 0.2746617623689513 
7.008800915331953 1.2298033022457309 0.19755129022845763 
3.2562359310918527 4.872633827379361 0.45962133901213853 
6.751182238589002 3.2693978253891696 0.5375308996405074 
3.99506188428915 2.9112382688167866 4.142176489597364 
5.013923846866795 3.4029532841777246 2.8697524415311113 
7.007301392871425 1.269939483220221 0.20393754218039492 
2.747786812111837 0.09540126469536579 0.19288463096599828 
6.242667845153225 4.420226482589768 1.2725459357675935 
6.499048917582014 2.177546377340276 0.8864658372879733 
1.7473425183497513 4.673524595480293 0.8624531973051379 
1.7547633013400143 0.06008485709393957 0.10463640758912891 
1.2492882092415656 3.9302227297808408 1.6029911041828087 
1.256666333541312 4.759275570202027 0.6794330033636238 
2.4958861662049725 2.460586503543162 3.2780194311733117 
4.004171517999551 1.8588361882986724 3.50592367109461 
0.9944178415935474 0.7640797963818676 1.3218607088154184 
1.9977693170876774 0.10629895873700866 0.1873540818064056 
3.2597432306856944 2.24104357468441 4.19716194361913 
0.7571352985674578 4.074102843407139 0.9420170871389251 
5.000431798279027 0.7591482100792218 1.4379422209325936 
5.503795563785219 4.05893797128263 2.006543801823422 
2.502158800806832 4.212831507706759 1.6954713710455236 
4.2582773651729955 0.1609614529981138 0.3114251855595697 
0.7548783045840549 3.2654430079350525 0.9487323889818652 
5.997237143744756 4.129506284020119 1.5425559207428323 
0.5157940528578105 1.7585386480347354 0.6076886991529847 
5.754423183059894 2.7181009307009183 1.8731665348730364 
6.500071531294257 2.3659401805323013 0.8754629349634444 
6.501420967464156 2.8478985648897863 0.8715214696837698 
0.000614252900034576 0.8837860133289549 0.02304180304083563 
0.4983606578200198 5.157348176595797 0.07539163095194754 
3.491200644521994 0.9286362895209713 1.7322098392737355 
4.506109503915559 3.3614780192090183 3.29699262634249 
0.7606629395293899 2.708873908267647 0.9351960656759223 
2.256522099090568 1.7954202493336888 2.9488913175622824 
0.24197440946159604 1.0058593401160927 0.28079939951802335 
0.5039778383290384 2.61521163485737 0.6111268412470077 
3.7475974831970214 4.473532473066278 1.222731181253358 
1.997403781043939 2.6310566786745877 2.620229191191031 
1.0110299939197132 1.534278043809862 1.285236229864367 
4.003459480160227 4.174690869012868 1.7677857710241183 
4.993375252138092 2.556370985856502 2.8770928316790485 
0.25786860203741624 1.9016301314205002 0.27401001252353563 
7.007226561041283 4.663217829599474 0.20591624390936136 
2.245857012251387 1.7261049864244398 2.9582053687588914 
2.5095488744258807 0.3883948086875919 0.7123445106089531 
2.2453775988576155 1.873650573371181 2.955988174572799 
4.251700482417397 0.12204256990787164 0.23065786697713392 
6.494495858743652 3.3713921126864035 0.8717572413289885 
4.002483139870725 4.5723967472075735 1.0401267139965926 
3.750387200625651 5.118449264593366 0.08913965726736717 
6.254072221303205 0.2827984690129082 0.5233186517545433 
5.506806099847059 3.60779810688317 2.191080638704635 
3.2505518776818065 4.458429409673163 1.2477855325833307 
4.751015903183487 4.253362640706542 1.644706825775549 
1.509503758143596 3.920429515402247 1.9653082344586081 
5.74096124236078 4.559534170164272 1.0626469021188085 
6.248648074566479 0.3779663347821765 0.7295731088082842 
5.758368262703 0.30712843395990475 0.5861482733352941 
5.000588757257843 3.618364180516002 2.796878881663302 
4.7490235308791755 2.9916684195529504 3.2329969123622466 
3.0003138704581933 0.38605653023339326 0.726822238098834 
3.750193468931432 1.987731771234198 3.7476689382947903 
2.252175645272947 2.908516076219086 2.9587205504762837 
2.252175645272947 2.908516076219086 2.9587205504762837 
5.01087298200696 3.1492057774529862 2.8803551460205923 
3.502711496051575 1.9968356672036365 3.7910141735197156 
5.2514402227229295 2.7810852498145913 2.551520561166168 
5.504671615917915 2.0365368547697216 2.2098689511541947 
4.246085640600816 0.6023280749807642 1.1426926595256333 
0.7564703725800422 4.56609166743904 0.9995138724644945 
0.00011207139401961711 3.3411553024077727 0.014647228335551689 
2.7580656428245445 1.3008813107112045 2.4418481141864974 
3.0003150184080716 2.4030126491839994 3.9594548856991003 
5.008222528307861 3.5894030313259635 2.8019885923398267 
2.7556213752805188 3.5140844890779146 3.0255322908642714 
5.998810586869824 0.5524398251121686 1.0421273063067278 
1.508359504337596 1.1002141595738844 1.9883268787118944 
2.2534929574422735 2.7522692871504963 2.9549237115201565 
5.754889875644726 2.907481631613494 1.8591255596211216 
6.757020447623382 4.647882899193038 0.5337185153663206 
2.5118231762612186 2.9850995768785604 3.279855986824921 
4.259505250222287 2.040179984642524 3.7945225105275724 
0.25735427604642697 0.8363938495050379 0.2803277098343308 
3.753221281324866 3.0699973997590617 3.8507368625306793 
1.5033212447517108 3.0550489225740947 1.966130798285117 
1.5084774032415738 1.220239983067932 1.957187077617555 
3.7453247132494507 2.3741880725847944 4.463608133179491 
5.509197532754297 2.5965151098064436 2.218925095468237 
0.7449796591992213 1.470410747377591 0.9310514292352687 
3.7619549105570798 3.8850949810536366 2.310464489878259 
1.509503758143596 3.920429515402247 1.9653082344586081 
1.2462971788349066 4.748378231158944 0.7198505260447997 
5.01087298200696 3.1492057774529862 2.8803551460205923 
1.0018841422858131 0.9664091229387983 1.2736444380971677 
6.748743132034574 0.8618799413085101 0.5429785893630975 
1.2417615603675975 4.315904243996835 1.4723752404275592 
1.7555332289274381 1.6599057467147509 2.2852068086043364 
5.752301325413383 1.4079704045401653 1.868599542897262 
3.2562359310918527 4.872633827379361 0.45962133901213853 
6.760468157876717 4.644131772645594 0.5392498119696119 
6.017788144939315 3.417299283143347 1.5296355848584735 
3.000748863966841 3.6751306569208033 2.725813542124174 
0.7541048638099641 4.961956975710007 0.31761366582373135 
5.004351193119486 3.4954955875349687 2.9296303942199913 
4.999623914497515 4.135047303450267 1.857917552071235 
0.9898518514622483 0.09829334567236994 0.19579189428471352 
2.2549219723118 3.455974576065097 3.009415079014497 
1.2598262066035248 1.4628051026435955 1.6216876958657285 
6.260917747053205 1.6506601887960513 1.209552916805446 
4.248526288715196 1.6971861430017916 3.186051642402993 
0.49838844199401416 3.901094896665373 0.6004473786375406 
1.2513727151456806 2.369773955230238 1.60558873808653 
4.504797976555555 2.0275826806891826 3.537652119218466 
3.7508985299240503 1.1713694626150546 2.2082572631566175 
4.501613378632408 2.7119579494037147 3.547580063310252 
7.0055346166755035 2.059264536660295 0.20313592030600572 
6.004361924973333 1.7290160682231686 1.5371175233518095 
4.005312328838171 4.752987187113241 0.694809649574383 
3.993405135325424 1.1598010510264805 2.1914822147977406 
3.5041412871250532 0.06766978728546805 0.1259287934418247 
4.25278580097295 1.6388356730584437 3.1038160867978166 
6.0101498784007825 3.0448640759920456 1.5401020493979127 
1.0050702958495752 0.5020093266909702 0.951328217267043 
4.25278580097295 1.6388356730584437 3.1038160867978166 
0.007799346495987314 3.109377053594784 0.02751043527137627 
0.7463999699799054 4.941026939650835 0.3391105437010833 
0.49517247274988313 0.07609032371801429 0.13749893164232735 
3.4904854526933526 0.08981057791400143 0.1542351353661769 
1.2616915926466956 3.001654797172134 1.6272124510211148 
0.2548701218060791 2.176985391796189 0.2752605464887877 
6.769261526220851 4.261385472634053 0.5328686048593576 
6.258392138221071 0.36755040041958303 0.6973389298558396 
6.50397025325317 4.29055361125427 0.8614875416194439 
2.007492637337672 1.511154872890256 2.6357755306642057 
6.753744446546582 5.155698883545812 0.08206645105594995 
4.251708936665467 5.07202133525444 0.09261497857862651 
0.004887242191049055 2.9001168455395514 0.011021547310106267 
3.4992643424107084 0.20575355367595144 0.407749354949221 
2.761828810157981 4.956354857140735 0.31628891699945055 
2.0058246215693054 0.027250149333472574 0.10862444652344727 
3.504090381205392 0.12187980351244791 0.2248027901878966 
4.757464813128781 2.0903508716325923 3.207232071787487 
2.0063904406043935 0.4812328647476217 0.9049705824720142 
1.994620758706487 3.837166689826804 2.4459753834891984 
4.003956176289091 1.9254590746012983 3.626710001800461 
5.257417291268567 4.535736190777009 1.103182789296116 
6.24806801944581 3.2065803914875546 1.2164914964021405 
3.0053448518471497 4.864748127746115 0.49137891760023855 
3.010820491319975 4.727136911928276 0.7457599370085146 
5.004351193119486 3.4954955875349687 2.9296303942199913 
1.49624400735912 2.2459957913585313 1.9385913778496822 
0.7596200654348318 4.590271415173773 0.8837562863018834 
5.504903186606716 3.99037748857646 2.106587545603413 
3.2530619871756152 0.7686539879341815 1.4653449983440752 
2.2567712797201347 3.3406823723892787 2.959205064442393 
0.25735427604642697 0.8363938495050379 0.2803277098343308 
1.7460271037682698 1.3067525022116253 2.340808157447249 
0.26128239473457177 3.2559226208118894 0.29494922877563207 
1.0058580553587704 1.1979118316155095 1.2713857879760142 
0.9932310469314545 4.265983587509432 1.2766274072008608 
0.9944178415935474 0.7640797963818676 1.3218607088154184 
0.5022985962956084 4.947415756722826 0.3424289434223818 
5.507614390200899 3.094325461738763 2.202396945425384 
3.2507499901826753 2.2206427703875335 4.146616580807954 
0.7526875235607087 3.899832612650266 0.9437219766063508 
3.503953123532031 1.3849225677951924 2.6133363770029088 
3.0022581173890996 1.3658876877292865 2.5705560653998396 
0.5014948689532467 3.33310485883904 0.6070063372222958 
0.7548786631482172 5.026106841862166 0.20330034437480543 
5.006852209507595 3.696389532842416 2.675545347191993 
4.003411491344298 1.719575304746869 3.241715931943484 
6.25693654015239 4.6359181981753785 0.8986534468020577 
4.753480144832893 3.296717114164841 3.282421945391345 
6.509989078966712 3.4573061859919725 0.8523939081584171 
1.7552952001695317 3.7443288811471085 2.2972069451970825 
7.009496482109865 3.4796285398586035 0.1925555151230377 
4.246020318132766 2.340642759308248 3.882143345354308 
3.2597432306856944 2.24104357468441 4.19716194361913 
7.009496482109865 3.4796285398586035 0.1925555151230377 
1.7529168720945287 0.21708343596275012 0.44115126514943737 
1.252481463918111 3.3759455249776353 1.6038080267386228 
5.245227655192035 2.3922395395768716 2.5362922242238977 
2.000967720480711 2.082038743983008 2.6193299914992774 
0.2519545464799201 2.0294512029527305 0.2683107100508305 
4.002955341412595 2.3479837271467656 4.290809204070183 
2.2492958012640143 0.2286247478089556 0.4379266322579722 
3.0109392395500376 4.685033858981776 0.8178680103059112 
6.257807093389178 3.3249698153589105 1.2024774196049215 
5.75756292035493 1.5821302753302586 1.8685383025841793 
0.7527691007869887 1.8488138518209183 0.940282273488898 
2.509561717303423 4.565623679478234 1.0428851116580482 
5.2516977267805744 4.4624217525021255 1.245084070889789 
1.5073196838850071 5.070715250301542 0.10035516564462164 
3.7566509952683615 3.522715792792579 3.0303758590924548 
5.256607324540706 4.079343707934356 1.9794898565051777 
4.749402390063513 4.466690608634589 1.2336523182849877 
6.261221596159952 2.9367375652592274 1.2014785695571264 
4.503090718930971 3.5734896639486946 2.9078937967591423 
2.750954965207766 0.8242157518439248 1.5596889379380228 
3.2597161371839536 1.1569122361479054 2.1879115552001167 
5.50093728937091 0.1895352166922544 0.36294420572933506 
5.505587018836196 4.176326641686883 1.7892041663867495 
5.994561016991909 2.154323779206851 1.544516353509934 
2.994290093444751 3.0197373496432953 3.950896826499125 
7.0074893680123 2.8913238476527625 0.18674606272492073 
4.010540452923463 2.2237246107407085 4.14691155892513 
0.7571352985674578 4.074102843407139 0.9420170871389251 
4.0048426641452375 3.327594404763817 3.373408680655278 
5.2487517738197695 0.09784473844240504 0.1762982969195054 
0.5015512645420119 0.5721937964438658 0.6093390675678931 
6.755574411779205 0.4280222191179831 0.525485076670833 
2.245857012251387 1.7261049864244398 2.9582053687588914 
1.2441856698541711 2.4054524168281306 1.6010161199977573 
0.24768744348859198 1.6387944870788396 0.2645038409142153 
3.2597161371839536 1.1569122361479054 2.1879115552001167 
6.7640543959559345 2.9686265710124795 0.5250956320094218 
5.762474888077816 1.8959099714382195 1.866296701609957 
3.504090381205392 0.12187980351244791 0.2248027901878966 
0.022299502114791876 3.2852476445884884 0.017889330233390326 
1.5080020582064706 3.3729106855050066 1.9544011573985072 
2.99541036151405 0.8722114889731148 1.6477916403663326 
0.2511527423498979 1.0258669363867945 0.26170799910560666 
0.009249129133876583 2.5377318337782864 0.024015215129315603 
4.011558109090123 1.7358571204209128 3.2717546173453473 
0.2527134863885557 4.090857970914663 0.28093610642197353 
4.243228576158358 0.9715104327794335 1.8451477348526901 
1.2488138350430804 3.8881272630406105 1.6088131974821849 
3.7447284313052718 3.813176996779464 2.469992546284696 
4.007753673758029 2.495292281936878 4.200658269916874 
0.9982444821319741 1.4564886231153045 1.285882669582326 
6.500194530060135 1.8006186747475679 0.871210313824023 
7.006180529296651 0.37182804580401396 0.20746772898924096 
4.757947278281302 2.6116656805541094 3.2040084438826244 
4.497377030730702 3.0688958341366313 3.5405571306778785 
4.501613378632408 2.7119579494037147 3.547580063310252 
5.2514402227229295 2.7810852498145913 2.551520561166168 
4.008450344525243 1.4876422931452087 2.796650090814024 
2.000967720480711 2.082038743983008 2.6193299914992774 
2.749781274179849 2.256029595596667 3.6228067526369476 
3.0143527663521925 3.108569445588383 3.7911079846314824 
3.754291227508892 3.005921331509814 3.970822262626108 
2.496716765596513 2.273764117408421 3.2908837282899337 
4.7490235308791755 2.9916684195529504 3.2329969123622466 
6.7534832241432285 2.303424156411693 0.5408100041402051 
1.748127879070293 1.8768440126729429 2.281706534178056 
4.258311443810738 1.5737158565170266 2.9816243389089285 
1.0136016876791785 5.13405745784234 0.0661127444402715 
2.7579700238160707 3.5751949592812737 2.914929290654127 
5.259572496527567 2.499008697349019 2.5538907703292586 
1.5017367439637423 0.9114872338784485 1.704100909974694 
6.500071531294257 2.3659401805323013 0.8754629349634444 
4.004713464988258 2.9837590388663053 4.018431205018752 
4.751401146945156 2.0982705423562713 3.2187786797144984 
6.004361924973333 1.7290160682231686 1.5371175233518095 
3.510216794301398 0.03012230938909018 0.0631572371605258 
6.509989078966712 3.4573061859919725 0.8523939081584171 
5.755448618836867 1.8337900096666921 1.861566611711316 
6.504175988998026 4.713758727389827 0.7439885953182808 
5.747515889966383 1.40299620324469 1.8761577465923394 
3.7566509952683615 3.522715792792579 3.0303758590924548 
0.2503964962380551 1.7526133395417596 0.2795012643254686 
5.501603219605088 3.5071698401891407 2.2019724084921117 
2.5001798273432416 4.24920148351224 1.6418543284768747 
1.0066461795502943 1.6537636680779118 1.2816363551566574 
5.503723180323565 4.026394821776771 2.052910343595632 
5.507562005017868 4.637148121823671 0.898710065455776 
2.260273254742877 3.413185221289756 2.9484495376816464 
5.510469227071208 4.440342928614035 1.2741364588394073 
7.017507544172259 1.3749900033019233 0.19295341410344577 
5.7479191345089475 2.0916032635745143 1.8781611473275084 
4.770380149663111 1.7070423461688151 3.2056866224422578 
1.5079555221083571 4.15453836982548 1.8079136555110895 
3.2562359310918527 4.872633827379361 0.45962133901213853 
3.2639167638959394 4.889774714587749 0.43265963644364797 
4.757464813128781 2.0903508716325923 3.207232071787487 
3.246109036516973 0.3831456082616769 0.7123075289726543 
1.7542601005458751 2.0696816530953406 2.280107670659604 
4.508284143909721 2.4325263515483035 3.543091771497171 
4.006026961429773 1.1436983757413872 2.150083850938783 
0.5030422343685919 3.3982809576172395 0.604945892281247 
6.744714835621293 0.5554610797870339 0.5390754037596024 
5.761965307246149 1.0555692568746307 1.9259240547366763 
4.006118488041183 0.5911346153536349 1.1156912533037866 
5.505822496360016 4.282344584422684 1.5817450188603073 
2.499019685505807 1.5908455179599954 2.993559284831686 
3.505903671612625 3.0869707874915995 3.828180889335427 
6.500194530060135 1.8006186747475679 0.871210313824023 
2.245857012251387 1.7261049864244398 2.9582053687588914 
5.75406993844896 0.24687049082159118 0.4670675426823916 
0.7554824461356983 3.265087946305121 0.9463384802690212 
1.4989181484867238 0.4212817161815129 0.7865155017634715 
4.500767539919819 5.024570826939996 0.17373283748436572 
6.264442377024733 1.9203712561562694 1.2124803244099727 
4.255316708184988 3.3983643380496953 3.250702577017577 
0.9974860752023398 2.8248825873756163 1.2683486506225858 
0.005316217427898691 4.541967380471444 0.010848980536034286 
4.744704352986695 0.7507844958350084 1.3986776505165952 
3.750193468931432 1.987731771234198 3.7476689382947903 
5.256607324540706 4.079343707934356 1.9794898565051777 
3.749279561326858 3.2827267514991965 3.476417959196741 
4.008450344525243 1.4876422931452087 2.796650090814024 
1.7470288933587996 3.5042515814167627 2.2755768833373797 
2.7462907837853905 2.3878907697212197 3.614933809590235 
5.255794933007607 0.7324338662801151 1.3830317726342842 
2.7482068701461064 2.503101448345658 3.6175548642874586 
2.9982956268631282 1.489265766900722 2.7997929751725414 
4.002955341412595 2.3479837271467656 4.290809204070183 
5.00780319210598 2.5353144588905483 2.8817991565868812 
5.000600983424776 3.5823382992389226 2.879656174145515 
0.7527691007869887 1.8488138518209183 0.940282273488898 
1.250144313850997 0.5501874664066424 1.0427089423314957 
5.7579822766245305 4.460665423114687 1.2498095035824068 
0.5022279119918777 0.1567636206536272 0.29593381280600795 
5.503795563785219 4.05893797128263 2.006543801823422 
1.5018942898067742 2.3125499687255755 1.9358879643337144 
1.9959938767836438 0.5614889295991786 1.0660065673361436 
0.5072615357313472 1.3409474659925271 0.6100723785856995 
5.758368262703 0.30712843395990475 0.5861482733352941 
5.76598016933271 0.861121705348354 1.6103378291851567 
4.254542068807352 4.841974408999625 0.5448906939584958 
1.751359807850275 3.9608051218349454 2.1622007288704457 
6.248161371781233 0.012705789682712262 0.11204016047631916 
0.7507603113965146 0.3785614633640831 0.7167843015581313 
0.001798605733617449 1.2383360547762376 0.026663467041354298 
4.4972704672325206 3.4161668807202923 3.231592188571787 
4.0040314604243425 2.9453845614096044 4.052839059481438 
2.7579700238160707 3.5751949592812737 2.914929290654127 
0.750634569026083 1.864534341969138 0.9445708626979222 
5.756620321931997 2.17045198451755 1.874084308915944 
1.9997479743641524 4.6270459667609645 0.9355884710121365 
0.2519545464799201 2.0294512029527305 0.2683107100508305 
