5.2569380590587595 -1.0892757502871429 0.5690129854106357 
6.759009491428821 1.4502982419601746 0.1972220206574167 
4.505979900675022 -0.3810789435882894 0.1663697705569266 
6.25174875698521 0.6081094521840823 0.4623916905702542 
2.2607567762001026 1.1408830130430945 0.6075073646254303 
6.25175785397368 1.4242648662029591 0.4662785500530426 
4.99651473975818 -0.02394508863694113 0.43069176654988706 
2.506362131040689 1.2595369044466118 0.6785669948109918 
5.2570071229614115 2.454879462317756 0.2555514548806965 
5.25765511845735 1.3860645416679525 0.7839620518787015 
1.0114617906738725 1.9836612448338689 0.5006291929602887 
6.739443083372183 -1.9982711770279247 0.1096469000087355 
4.487894807745112 0.4335293523292679 0.22465962289664548 
1.2597947343151867 2.3845761009778657 0.2924424832216722 
7.00369334980788 1.5457774480780873 0.061848340910321445 
6.5032433270995655 -1.0678581619184968 0.31945623163105874 
1.2517360139765186 2.8870579526101867 0.012821469230686292 
5.994470049517592 -0.5337554624342107 0.5946543575845499 
3.7498096508668195 1.0713124684241055 0.5621089770899967 
2.7582508396987238 2.265843459998185 0.34907161165770567 
1.5050876879463175 2.26587223300568 0.3483590703930344 
7.00692125110916 0.5832441517083579 0.04626581390746711 
2.0018621390823546 1.3630273209570734 0.7169713526254097 
5.001359045328017 0.4452868721479764 0.4332392039522954 
0.7559248665926501 1.0851397158401577 0.4156193810929275 
6.013227715653182 -1.0085872205813977 0.5984838299448071 
2.7563129234849306 2.433435343483204 0.2582584118536021 
5.244666980124045 -0.6154223098337459 0.5609518206062599 
2.751278464021845 2.2642932368561697 0.34005888157090064 
6.246808901105754 2.7974562576689808 0.07174483317513733 
5.497745938583447 1.0012256066467375 0.6868561180098967 
3.7471581033853942 2.2937014956838016 0.35382353491234686 
6.99723144634213 -0.690687488020263 0.052228061669516435 
3.7483820580371017 1.6193516438424957 0.7153259264186017 
6.008714907282451 1.5579059891254758 0.5911074546208639 
6.759246240579528 2.0218912747672673 0.19377399322837818 
2.0145739882611737 1.1742355671933147 0.6287453004071365 
5.998437171748427 0.4188730020374991 0.6009901467066735 
5.517833514846982 2.296313094258899 0.3365410211662363 
5.247543356065626 2.8012194021295143 0.05872313613792234 
5.496696026738882 1.3246637783323825 0.6969415947431028 
0.2505684595715156 1.0340628239718361 0.12208595560355424 
1.007315373084167 1.174389729731301 0.549227109120982 
6.503099455532826 0.03143401104368184 0.33526139669131677 
6.254665184504057 0.9647678206699587 0.4657276850748345 
4.255783649072067 -1.5243284323261024 0.025997537579899553 
1.7547910782662013 2.300787113306685 0.32934697518789596 
3.507500643901544 1.0275278169613318 0.5300938247852242 
2.2448521404549013 0.9806764549555665 0.5178037543674721 
0.7463720727267273 0.23332449714653733 0.11607487660682025 
4.494500198119885 -2.0184856871056738 0.09237890585594903 
5.753383709008064 -1.2349717150194934 0.6085381818054696 
6.7416680521138534 1.6433878878337322 0.1892594685580682 
5.503622879930732 2.270484035849416 0.35596859102413025 
7.002493046714094 1.4990851060545969 0.06143084752638328 
7.006506029716032 0.31998742945349584 0.0438110429340796 
4.751743614730925 -0.4387753331284715 0.28807874379769927 
6.251871151000394 0.30825553038175196 0.4592129571764028 
5.744048588925859 -0.023910469835019647 0.7148149267135068 
6.007522889228828 2.1752994527877876 0.3909077293677794 
5.502143374413685 1.097088882280962 0.695559133450358 
6.00106561154725 0.4627609392554435 0.6037753601928575 
6.511328735123455 1.8098699090131916 0.33271129781288905 
6.762634094013988 1.191238304952481 0.2028410019055289 
2.499473422535128 0.6048352533351005 0.32614765870917367 
6.2467154859873055 -1.9118905174127556 0.14917255108140634 
3.2487075050359704 0.21162501922238358 0.10976640128315378 
1.5037934357826834 2.8378563195825635 0.05091045084689458 
0.7546109494495337 0.9517003821155933 0.4060809089064494 
2.247639758084148 2.364710801766652 0.30250889195228126 
5.497437531623032 1.028700568839553 0.698061946548927 
5.497745938583447 1.0012256066467375 0.6868561180098967 
4.502279601678246 -2.0626048717239542 0.06287984654361199 
6.004339325616753 0.2432441589306788 0.6093708156412034 
5.506247453432586 2.8393180761548047 0.04279744057730989 
3.0008450036461576 1.1757093397632872 0.6255169333355054 
0.7569532226224565 0.49525721868084205 0.26582288442552415 
6.763696161039181 2.077527026481101 0.19142365646248458 
1.753665471465702 2.3424527155856985 0.3169583786707695 
2.738237842914933 0.7541794812996832 0.392128800414072 
5.753383709008064 -1.2349717150194934 0.6085381818054696 
0.2560095176514367 0.8976879802318709 0.13913891567559875 
0.7564340211158317 2.2688281751507926 0.3513690430583166 
4.748004586497253 2.742351818931997 0.10617043182802618 
4.25118363759475 0.9415237162212472 0.49893104131444416 
3.7424899257437354 0.7128095476755678 0.3768384938081114 
5.998437171748427 0.4188730020374991 0.6009901467066735 
6.507577795305846 -0.011323558463214482 0.32876906669768735 
0.0011354018212665544 2.1045879767586855 0.06738524129021804 
6.242538283721584 1.0008423572165372 0.4623167093587943 
5.74577433857695 0.6879506547339832 0.7135573941471433 
2.7427910911260063 0.47510844220685405 0.24779165630399813 
4.5088184363729695 2.742127730703113 0.09425967798300564 
5.014955244815186 2.8130824789584756 0.05592446770593265 
1.0037141287335347 1.8786118685292654 0.5356373403508559 
3.259736260495316 1.7898990103737458 0.6288697716552036 
4.754378079343937 -0.2594134995935231 0.2903985552036345 
1.2529347702799591 1.4783319586944856 0.6708093552512897 
2.7496530862552175 1.917297728322172 0.5511249421489762 
2.001289398690325 2.286584590367242 0.3491309964284624 
2.754808414124717 2.9076735702129457 0.08129706428182965 
5.501558608216672 1.2484922878458207 0.7093818674344602 
2.749577298550037 0.527833717760006 0.27057914449577286 
4.504743185371103 2.0486579884001435 0.47576813353348923 
4.4962089264240035 -0.33120420278657287 0.1606793259470375 
6.762634094013988 1.191238304952481 0.2028410019055289 
5.515245382050034 -1.2599911766820342 0.5940096641863859 
1.0023094243163346 1.5470166978650495 0.5437476477080655 
6.259840203712674 2.028826332727788 0.4518964599324946 
6.001217882354086 2.2865648051597405 0.3533486237350147 
4.002679963611984 2.681866035020314 0.11786491812559284 
0.25549355378767363 1.3252726650777225 0.1294776963457106 
6.747562625170765 0.5740601193198641 0.18782304125585766 
2.990537911846319 2.7102004507308632 0.11195026067187681 
3.754917133628226 0.808550336482524 0.41676446422506425 
5.2570071229614115 2.454879462317756 0.2555514548806965 
0.9917890273146899 1.6108204538589497 0.5467211646413289 
6.012928192286813 1.5743409342678258 0.597199974415092 
2.7426203916169993 0.2581289417255506 0.11681045693942342 
1.4985868199080281 2.89764863699573 0.012950010236347604 
5.248670647134025 -1.8842633596760905 0.18711530850490243 
5.247816599099572 2.5208716303335024 0.21718669846089295 
3.0093187111306783 0.6851826239807048 0.37273429287321297 
3.0065229201295667 1.563486324022155 0.7173081126464779 
1.263754730211649 0.24872277826291303 0.11216175697024587 
3.0093187111306783 0.6851826239807048 0.37273429287321297 
5.007456662119552 0.34102849272191194 0.4346615673795769 
2.248032389986222 2.076901173447377 0.45249080674441683 
4.99513773017651 1.8693023754912326 0.5728883418975377 
6.001622609511288 -1.0207639468713345 0.6036689037037678 
2.004349677793815 0.7372501467077669 0.3935906171529958 
2.2448044971810197 2.379507704366729 0.285034793831129 
6.99326016101063 1.0030112829517654 0.05083510602659149 
6.514578279474619 2.116950903808283 0.3285780395570152 
4.745606127472811 1.0557598548721232 0.5655577493377217 
1.2468114121684828 1.837801722754469 0.5945797238511342 
6.753242410651467 -1.5994493417881392 0.1966757622946583 
1.0082281272101643 0.7996456155042969 0.42181483601898717 
5.485106702183913 0.5830460028083126 0.7013440582972078 
7.004287833181435 -0.156251543639341 0.05687469447108421 
7.003160384304748 -0.9373465643408487 0.05208462811789602 
1.0028162878024232 2.582602341564779 0.18465697134273865 
6.51651478870057 2.665000824280738 0.14372588730001254 
4.744751955270206 2.5580080092856647 0.1950485131421564 
1.2615242168850058 2.8644302886555417 0.03497983062148067 
5.507477719748935 1.7553119518053717 0.6287758390058054 
0.0072405463443235354 1.24390420941091 0.06722224551205903 
0.7546109494495337 0.9517003821155933 0.4060809089064494 
5.7434278688849885 -1.8515992967471557 0.2238135865667309 
0.9885524164962906 2.192523844750516 0.39745243730091095 
5.7569828721302505 0.7177212050972642 0.7103579057074292 
2.9987549218075156 0.2973080808010165 0.15899965715853798 
3.005097215130625 1.9513476750690881 0.5130731318851216 
6.999077477974233 2.826158265811216 0.034219219200356206 
2.754808414124717 2.9076735702129457 0.08129706428182965 
4.002679963611984 2.681866035020314 0.11786491812559284 
2.2520618509561587 2.452720589289894 0.2563031870347371 
5.751053615343274 -0.07404597774159266 0.703499972441933 
0.7662369966321538 2.5581779226578303 0.18490317271364493 
6.750288341195515 -1.9963000464352318 0.10770003595854338 
5.24930232350511 -0.6213669681604673 0.5741111529600931 
3.236372506568428 -0.08314932494789859 0.016366747956035363 
2.2513528519358457 2.2907484354881458 0.34481114995442724 
6.767154122017877 0.6723242582055886 0.18530931682584809 
6.7591112836332075 0.2064700548654462 0.19001863338645786 
5.254869825658993 0.7642797943243302 0.5723644018615117 
1.9939044257649714 0.32569828659121836 0.1579894536588958 
1.0069406409893844 2.430913436513163 0.26172771037323567 
4.745606127472811 1.0557598548721232 0.5655577493377217 
0.7443482531513111 1.125995871088249 0.40797017549768894 
1.7516778956276093 2.8834507549528703 0.014617344222952754 
3.7507917695454007 2.017926792449388 0.49238738751282435 
2.2448044971810197 2.379507704366729 0.285034793831129 
5.262389405471245 2.8108286135613865 0.06332155370263408 
6.5139324644671825 0.07029173180749142 0.32686384699410354 
1.2568403865500097 0.5175614425518745 0.25755324110190375 
4.993662957646709 -1.8408088050448244 0.2084918949492629 
5.262913400016996 1.2149189597038668 0.6429533100118786 
0.7571239200846076 2.6092615508289625 0.15711175927477078 
5.503245438694828 -0.17712895468333156 0.7022767351387239 
0.9932885523762947 0.06224883147756986 0.027867920021076513 
6.002564957171598 1.1025351689480327 0.6099854304446711 
3.264499777781918 2.3815587562452127 0.29164827012841055 
2.2422326803453285 2.3703147085194427 0.30219645239147436 
0.5058449558243369 0.7684590680851804 0.26612798246063 
6.0067562608550595 2.6828274663216654 0.12654730004724887 
4.756265389859657 1.799064659534215 0.6142801086361497 
5.5066651013782915 -0.8613653956300826 0.7056638510018554 
6.750288341195515 -1.9963000464352318 0.10770003595854338 
3.757999300779605 2.531191826192665 0.2051805903726583 
5.754985550090311 2.775780651125187 0.08226417708355552 
5.755938789218995 -0.9235213812618703 0.7060426531670901 
4.000602735331078 0.8094029377940987 0.42988287480733733 
5.51045696874887 -0.5583740564305444 0.704404864247464 
3.751608447082488 2.6403354420787615 0.14344805440663094 
1.9972605272023194 1.1824317160167181 0.6221509675574861 
4.996115730487848 -2.0909660929442935 0.03546031351815195 
3.0079323544897205 2.3843431889756648 0.28725661449325846 
6.7441976669209875 -1.0764846823907483 0.1955281915191458 
0.9885524164962906 2.192523844750516 0.39745243730091095 
5.75941220416073 1.7485226494529744 0.6326588833651394 
0.50162502629045 2.0013221291261716 0.2778130961686338 
6.0105660066615725 2.6815241014143774 0.13365442793504415 
6.999077477974233 2.826158265811216 0.034219219200356206 
6.757940621059284 -0.3278189137072224 0.194800759823434 
5.757044863657536 0.38280589460481673 0.7157344824164569 
2.0118436246959632 0.5974408444313561 0.2965532525171418 
4.487894807745112 0.4335293523292679 0.22465962289664548 
2.4944664981689506 2.2017736164745263 0.3876294893600064 
1.5015183921570252 1.0149777914807268 0.5412807721464566 
5.249997125502485 0.850561384774487 0.5639298161369732 
6.504837661307228 0.4505879971765792 0.32535654456187396 
4.244628426443809 2.3863809915630005 0.29477881223129637 
4.758830788316723 -0.28312604564220123 0.301941293295541 
4.989256985508714 1.6516557036378898 0.6921851165315508 
0.9885524164962906 2.192523844750516 0.39745243730091095 
2.745583005294329 0.8546188355397845 0.459854785474909 
5.003187856219982 -0.06222678670950191 0.4230958647346385 
1.0010997343849364 2.0177167657431854 0.47821817412993284 
6.759246240579528 2.0218912747672673 0.19377399322837818 
3.0066985180599763 1.1145809798942605 0.5837563717329913 
5.000999158692925 0.3485461468774206 0.4228756953699297 
0.24795988600213237 2.768150346575214 0.07390410396172754 
0.7631953788200015 1.5443065875064612 0.4099685680477086 
2.0091486172454553 2.744452889934412 0.09339379720257637 
3.7493208424237943 0.45745145181853475 0.2379907860954619 
7.004420343016481 -1.6110840561592816 0.06315393231523626 
5.485106702183913 0.5830460028083126 0.7013440582972078 
4.243876212519776 -1.7853707809685837 0.023108075171150485 
0.49330320820626716 1.451711457413045 0.2566013919905668 
0.5036810287355693 1.4080375004491703 0.2628169092788679 
5.756023906916845 0.7613715999270878 0.7127390440636893 
6.248791102918548 1.7403103758501628 0.46473598496851404 
5.500799721396269 -0.6307541990414527 0.6936043174155315 
3.7507917695454007 2.017926792449388 0.49238738751282435 
3.493981806080162 2.7975281094807394 0.05706740224412054 
1.2447424977570465 0.27242780758925444 0.12345988521421598 
6.01277315010049 2.8075294879174133 0.05460247940608862 
3.49894627282954 2.823521451795878 0.05601135103905969 
2.2494076811560157 2.4375912356724814 0.2613782039849911 
5.499287504685897 1.7772038978978095 0.619268581392795 
1.7583236961531132 0.09233429397448975 0.04082866203107827 
6.50171709466845 1.0593108025290212 0.3272764301540207 
5.2392219635285695 -0.5985764266351951 0.5603930691668287 
6.501764553737647 1.5820819468301706 0.3222952964421792 
6.995836472046254 0.5971999657059586 0.06662444626959622 
4.254685625906724 1.3749339290680487 0.7839207488296744 
5.512175498913894 0.8973128512711326 0.698508017906186 
3.7471581033853942 2.2937014956838016 0.35382353491234686 
4.260061496972741 -0.6150305561129845 0.020030786806280527 
2.253037600680469 1.5127857454030498 0.792402064878544 
6.0084658246688365 -2.1348904960357546 0.014736117766984018 
2.2520618509561587 2.452720589289894 0.2563031870347371 
0.25549355378767363 1.3252726650777225 0.1294776963457106 
5.505881517447827 -0.09485629284331135 0.7058725718847677 
1.2624247935944548 0.35167364906058524 0.18171742654174808 
6.503099455532826 0.03143401104368184 0.33526139669131677 
6.007522889228828 2.1752994527877876 0.3909077293677794 
2.5015189096199615 2.282748856133084 0.3425386128823994 
4.255783649072067 -1.5243284323261024 0.025997537579899553 
5.754953779411145 -1.0034964871813101 0.7161839922900826 
2.5057463580278636 0.8687243224885796 0.44535647788209437 
3.5066500063523978 1.5250592393064644 0.7879530627384268 
3.9945973630403127 1.565346292846884 0.7853582367842823 
6.747562625170765 0.5740601193198641 0.18782304125585766 
5.508896529850042 0.33298239929740603 0.7107710282382881 
1.7576491864459176 2.4212065939628027 0.26881448901607286 
6.499553460189112 0.8807753331724284 0.3307467087026128 
3.74763657187943 2.792973502614372 0.05706237946339098 
1.7387440225085051 0.3737010150606108 0.18512929345016346 
3.503126777037398 1.4404820733707269 0.784270799462432 
6.990949173835066 0.9603568349599693 0.06601448167485505 
6.507577795305846 -0.011323558463214482 0.32876906669768735 
5.006719535285207 2.080053090732613 0.46213207628658254 
6.7441976669209875 -1.0764846823907483 0.1955281915191458 
2.7584656880096547 0.3317991878934072 0.16503555467636827 
6.514578279474619 2.116950903808283 0.3285780395570152 
5.244832180244888 -0.3842300666088873 0.5606662468373904 
6.25175785397368 1.4242648662029591 0.4662785500530426 
3.508198159814727 2.6635717308428997 0.14005383987376682 
0.5032603426709807 0.899111154152371 0.2681893337880486 
2.0120731620778893 2.673127572290676 0.1429173111234188 
0.25170237127325373 2.1972806056610312 0.13693720312134866 
4.008446346632592 2.6022862762437207 0.17731904855915948 
1.0023094243163346 1.5470166978650495 0.5437476477080655 
6.9934834140025774 0.9330725533153058 0.062160193889294196 
1.759251296780026 1.6392393541310586 0.6925957217294844 
6.0105660066615725 2.6815241014143774 0.13365442793504415 
2.248799332557037 1.2065154186857237 0.6408402633349688 
5.255481779182999 1.025205966224109 0.5579031192650983 
4.5007297361097525 1.7868411123488004 0.6135832116476752 
1.2557662678101846 0.2822844513632309 0.12727726114191226 
2.264088176700595 1.2554983775822341 0.6674316880627131 
5.994529853457967 -1.8877008606783852 0.18792975134109324 
4.510127136623959 2.468743633540004 0.24559636106311902 
5.244215455115583 1.1118015876835639 0.5842753307719281 
5.243871597110422 0.24796982324677244 0.5641833153329484 
3.2583544180237616 0.01876205554584992 0.07283004332911257 
3.0044301254807277 0.6826618345579251 0.35798087096724907 
1.2506031324834639 2.7055100427848116 0.11750659783360572 
0.24795988600213237 2.768150346575214 0.07390410396172754 
2.4992525546508166 2.2670542290206597 0.3503764621103377 
0.25271849308210054 0.35625147586458106 0.11480276668204792 
5.001340678453994 -2.122224018571613 0.028928700983327078 
0.2511528669360156 1.5070872060301406 0.1289346866472168 
5.001354692307649 1.5973259090919685 0.728459553187639 
3.5098399773522506 1.7836053586288838 0.6198002713790344 
6.759246240579528 2.0218912747672673 0.19377399322837818 
5.501326352089127 -0.948973676367185 0.697350402391395 
5.998999414216342 -1.8695037226692197 0.19789163310983215 
2.4944664981689506 2.2017736164745263 0.3876294893600064 
0.25703870126505174 1.2461378731905828 0.12147973531160935 
1.5035242966472087 2.6023995567988303 0.17417076162756037 
5.262389405471245 2.8108286135613865 0.06332155370263408 
2.5076163544748575 1.2668132580445852 0.6670268070131964 
6.4949158781227405 -1.624468005053803 0.32757459063946953 
4.759448771876199 0.06793618528729714 0.2859340612100285 
6.0117984655131025 2.9334185099113137 0.05486583310572854 
5.25507974347356 -0.14545966412270303 0.5674120220631271 
4.74596177625722 -1.0601082135414315 0.28282144594882935 
0.002494018682341164 1.4624019105336206 0.07148023686940003 
4.756769405832071 1.925743382137039 0.5428261835476438 
6.747757932236847 -2.0285631388145084 0.0767107825762853 
4.75221493149366 -0.1880848026016286 0.30287627445517706 
4.990520249097709 0.13162631889735388 0.4304868095048559 
1.0108825746983694 2.2468088458771196 0.3623727175860096 
2.247310687171457 2.3826393623533026 0.2934809272840298 
0.5116933102565806 0.8157318747618862 0.2626665771394678 
4.245381318100053 2.154826446692935 0.4152481734578748 
1.7574949227810206 1.0451187534666333 0.5576639968495198 
4.253640695535948 -0.5657708106862546 0.028902245299984072 
5.24930232350511 -0.6213669681604673 0.5741111529600931 
2.504927616549865 0.7868780518714219 0.41908826246246383 
4.5007297361097525 1.7868411123488004 0.6135832116476752 
6.9968935165484885 -0.2852359822304629 0.06617663371457189 
2.246510888765768 0.33490658129016754 0.16271062230751845 
6.756119925263377 -0.44879110534707894 0.20105621405627833 
2.749577298550037 0.527833717760006 0.27057914449577286 
4.002585191089164 0.3464297795180403 0.1888578856449189 
5.008684669808702 -1.712487269311245 0.3089980621958779 
1.5062182898264722 2.379882904421238 0.27670069927190993 
1.7580819420920426 1.424122612905889 0.7914014793209756 
6.251871151000394 0.30825553038175196 0.4592129571764028 
4.255377439544368 -1.6210542048359087 0.019242215821623627 
6.2450962799914125 0.9852702663749194 0.47355083229545614 
5.262389405471245 2.8108286135613865 0.06332155370263408 
7.007091219829756 0.18478254250469406 0.057206428902369474 
1.2506031324834639 2.7055100427848116 0.11750659783360572 
5.246704210257867 2.515557962219654 0.2289349400959394 
0.2478390367138368 0.160523944472187 0.06130252979464338 
0.5089213896122997 0.7186076456670917 0.2590889860639528 
5.506688977632024 1.4472486733167091 0.7876247053333431 
0.5013458549793874 0.5712485495957346 0.2552038528833144 
5.25591667184387 2.9275341473677656 0.07080212989964234 
5.750545676915451 2.1462297136678132 0.41908522327958364 
5.758196853654465 1.5573388052535708 0.7001354852692249 
6.990949173835066 0.9603568349599693 0.06601448167485505 
5.010726889525784 0.11902521618958484 0.4368696941112603 
6.249733135202684 -0.9652298272211108 0.47732393383405725 
1.0082281272101643 0.7996456155042969 0.42181483601898717 
6.008867457702771 2.1115876902751047 0.4397704859566028 
0.49894768125239936 1.33781147704648 0.2608769674900014 
1.9967168640935042 0.47572154960424956 0.25205413346253475 
4.248723134746864 0.851888523599363 0.4547312839476542 
6.99326016101063 1.0030112829517654 0.05083510602659149 
3.503464767875834 2.274366754170595 0.3329908858363299 
2.0118436246959632 0.5974408444313561 0.2965532525171418 
5.747615434503392 0.5797301374277567 0.718197623162174 
1.9967740618971932 2.736332410273655 0.08884774912562586 
1.9956599566787374 2.922289702880824 0.07285188566863084 
1.006736773572303 1.5960991301382728 0.5412587387923611 
6.999854286224791 -1.1419121207734402 0.06314424376352772 
5.5075414444321185 -0.3354321019741448 0.708412845491289 
6.500720164056104 -2.034120251082134 0.09153749901819212 
4.755164108665932 1.4546903719152537 0.7879594506891693 
0.24718582708501077 2.5078667444111753 0.13427017429897617 
1.506810284215334 0.9079224335924428 0.4765824048052489 
5.248246269416808 1.691798123973569 0.6607945017487153 
5.755625993379582 1.6606723440995719 0.675051423678374 
5.01023283401919 -0.8320286791996262 0.4330720118976591 
1.24553455981882 2.548709471372032 0.1898683714941599 
7.005822426631164 0.9333759000083817 0.0516782603032239 
5.254869825658993 0.7642797943243302 0.5723644018615117 
3.746416408390648 0.5846826975866486 0.30268975304970897 
5.753075416708397 -0.024964234044458418 0.7231398465016075 
4.504955924870859 2.5418067890496987 0.20941000663041306 
4.751675988746958 2.0458624996489463 0.47057454480114436 
2.7530100890888085 2.420438786279205 0.2674395568218432 
4.497418400905645 2.2274159649594583 0.3798287615749024 
6.258419445660495 2.6167790743200863 0.16170281595298827 
5.2511883548092 -1.6074374716293267 0.38269507735297426 
3.998640646372745 1.981718731231456 0.5034494625389125 
2.756662969889643 0.9744596346092326 0.5205391142754376 
3.5018023077478486 0.8581629514818313 0.45784752983385124 
2.740344720951578 2.0671370697762117 0.4677627489674234 
2.990537911846319 2.7102004507308632 0.11195026067187681 
6.506872418395678 1.1460367366270463 0.3149381177361474 
3.9991540541128123 2.6422483633609044 0.16108421660215633 
2.010720785002299 1.5456245438171319 0.7908532243328107 
4.001860967538958 2.7270183630996314 0.10218395478493913 
1.005338406804363 1.5359611655693972 0.5356593987973856 
6.000737186433348 1.2738370653296198 0.5946988198716233 
6.502077695269815 2.7559220834581684 0.08508790215316486 
3.2589980157648144 2.4818597673524483 0.23362580335317604 
0.7575592450780856 2.40186262174986 0.28751113325235156 
6.760092222939384 -1.3609555370734374 0.20284648723471924 
3.747191935011669 2.3317364484659358 0.3209964817588249 
2.757870506584273 2.2468692489844235 0.36492556551109234 
5.248712736265296 0.1410426449315774 0.5638265487969908 
2.9987549218075156 0.2973080808010165 0.15899965715853798 
5.000077116947759 -1.62145683475085 0.35511352360533643 
1.9962594078414069 0.7193541720774526 0.38335495101167255 
4.507395110889434 -0.45692681803425683 0.15970335355831766 
2.511381365104263 1.9337026188909756 0.538213229653182 
2.7530692664045597 2.6267643723702916 0.15268716089406376 
5.764723272254032 1.2187220490469626 0.7155950294501935 
3.7498096508668195 1.0713124684241055 0.5621089770899967 
5.751851451706013 0.4970515443587081 0.714422188828373 
1.7484802095867846 0.3996142610198472 0.21527115085473983 
5.008975856169598 2.9141916001792603 0.08435872545589587 
4.503482495306078 1.0437150763072738 0.5540863690723523 
4.511549234512133 1.2830035944684959 0.690462415118207 
4.251446465255212 0.9373860423100898 0.5010521080606241 
0.24795988600213237 2.768150346575214 0.07390410396172754 
6.246808901105754 2.7974562576689808 0.07174483317513733 
1.9967832057442567 1.7283597022090151 0.6557446706883109 
4.244628426443809 2.3863809915630005 0.29477881223129637 
6.752157056013958 0.323698656431601 0.1898531581264524 
6.501109569844699 1.2582841226842427 0.3313617349074728 
5.2398503907047465 -2.0664853053774332 0.06543937784022011 
6.245266582137713 -1.5934745816538585 0.37456932279225946 
5.510220709123037 1.7875590829454888 0.6043176613102199 
3.508198159814727 2.6635717308428997 0.14005383987376682 
4.0060605218721745 0.36878961826860446 0.18587307511889312 
6.751925212771946 2.3667931527128347 0.19805705963876818 
0.0026059173970370544 2.123014007762557 0.06591965838852636 
3.9945973630403127 1.565346292846884 0.7853582367842823 
3.9995456113736454 1.3121257964602178 0.6957120422331599 
2.7456261760715512 -0.050228042307455575 0.04004991760581775 
5.76642527376256 1.0909735374803797 0.7158977397263878 
6.2521333442575235 2.293525538961203 0.33360897011757923 
4.501072203926738 -1.9769461887246196 0.10187070366375774 
5.000568500130205 2.0652898416452525 0.46489955310324393 
3.259736260495316 1.7898990103737458 0.6288697716552036 
6.497087995375427 2.919792397998927 0.07201496597108373 
0.7571239200846076 2.6092615508289625 0.15711175927477078 
6.509199795567767 0.6760916097152018 0.32343273048134724 
3.5107119359296886 0.48588004518630745 0.24388055574033196 
4.0028623548040265 0.5856338479017816 0.3022364502161168 
6.500720164056104 -2.034120251082134 0.09153749901819212 
6.000833990222085 -1.7673386196620697 0.27064988352962654 
1.0041751856837546 2.2742101953404426 0.3500666969728495 
0.25525410088117373 1.5554728628888432 0.12832597131049966 
1.002499249793812 0.2455609709464272 0.11912674788160407 
4.995859178970072 -1.7971573047792044 0.24693679787792613 
5.498740837362598 -0.93799991600902 0.6989237037344145 
2.7467087444056038 0.353468379836514 0.1734118250312882 
6.003590520199161 2.208431338516161 0.3811859720413013 
7.015687357421128 2.4804311530734027 0.05549672357498271 
5.5066651013782915 -0.8613653956300826 0.7056638510018554 
0.7569065997170233 0.5781163945512311 0.29777676382194646 
3.4990909031548876 0.09393259816556349 0.05814463755954424 
3.7524986336305535 1.1334698637178662 0.5873663703809001 
3.2583544180237616 0.01876205554584992 0.07283004332911257 
5.500799721396269 -0.6307541990414527 0.6936043174155315 
1.9972605272023194 1.1824317160167181 0.6221509675574861 
5.985288940254605 -1.9841977551861434 0.11584924489470458 
3.2559866438776957 2.4105869060348395 0.27752263494719703 
0.24356242185091695 0.41189823109493945 0.12045227946870553 
4.0060605218721745 0.36878961826860446 0.18587307511889312 
5.753481816733525 -1.8751654848792203 0.18471583277559728 
3.7446224837604403 2.3203470913174358 0.32461603593635985 
6.254665184504057 0.9647678206699587 0.4657276850748345 
1.2543685373377242 1.00774160626433 0.5379151808517337 
2.7426203916169993 0.2581289417255506 0.11681045693942342 
0.5116933102565806 0.8157318747618862 0.2626665771394678 
2.004651394831119 1.9314269162358775 0.5391978255264803 
2.500487142094596 1.0066276503917813 0.5246118779635187 
2.499056041590493 1.13195013493893 0.6098851541054255 
6.507875639414726 -1.750943075475298 0.2569051729032881 
4.757745638365699 1.09807904002874 0.5725182401582389 
3.751070187659327 0.9520344809810205 0.5075670331093113 
4.497064880316039 2.090564984931149 0.4533381771475229 
5.749815096498607 2.2894348197526213 0.34088489986015214 
5.246704210257867 2.515557962219654 0.2289349400959394 
5.995142034849039 2.88955563589512 0.02819791256205214 
5.485106702183913 0.5830460028083126 0.7013440582972078 
5.751053615343274 -0.07404597774159266 0.703499972441933 
4.751675988746958 2.0458624996489463 0.47057454480114436 
5.516125733469127 1.6465869268431277 0.6917168055545526 
2.7426203916169993 0.2581289417255506 0.11681045693942342 
3.259736260495316 1.7898990103737458 0.6288697716552036 
4.502101035302058 1.73970442921972 0.6444750575761261 
6.003590520199161 2.208431338516161 0.3811859720413013 
6.502077695269815 2.7559220834581684 0.08508790215316486 
5.006910177379229 -0.010272733273348931 0.423897851671801 
0.2462359786359162 1.945132400738629 0.12166550044709562 
6.497087995375427 2.919792397998927 0.07201496597108373 
4.755164108665932 1.4546903719152537 0.7879594506891693 
4.5147801399017755 -1.147474472400003 0.15994100072396947 
1.2594617584162708 0.608641399341821 0.31804328794738856 
0.007727017687085074 0.06611950982822867 0.04975055766615179 
0.5030354850537332 2.304810069263275 0.25972989191933055 
4.74596177625722 -1.0601082135414315 0.28282144594882935 
6.002169020103707 -0.028481883380001665 0.6026829861142409 
4.251083265860875 1.851328904008895 0.5758041861477502 
6.010451667630175 -0.842294524877803 0.5913578918281346 
4.2500320123691555 -1.657125718427091 0.021883700204129525 
2.243196179086231 -0.11149153155066356 0.016983821730823502 
2.738237842914933 0.7541794812996832 0.392128800414072 
6.001622609511288 -1.0207639468713345 0.6036689037037678 
6.9968935165484885 -0.2852359822304629 0.06617663371457189 
3.9995456113736454 1.3121257964602178 0.6957120422331599 
6.007522889228828 2.1752994527877876 0.3909077293677794 
4.25359900448458 -0.7686160875386103 0.03322567283406442 
5.011054484766755 1.1318240350631201 0.6043941417031038 
0.25774987970752244 2.1532400128658242 0.12908849222691499 
7.010799490397746 2.395632758556154 0.05183980591251226 
5.7569828721302505 0.7177212050972642 0.7103579057074292 
0.9950426477735491 0.6644582197036257 0.3522797980957227 
6.510318590283757 -0.758823771057481 0.32296659212774104 
4.503247005896527 1.7353122662580784 0.6462129262434577 
5.747819362821595 1.0472596780258225 0.7827360973260024 
7.005561619535727 -0.342853225192167 0.056474734176604015 
0.7443482531513111 1.125995871088249 0.40797017549768894 
3.7507917695454007 2.017926792449388 0.49238738751282435 
5.999981610404733 0.24664611556109217 0.6016563394499873 
4.74895613091649 -1.4071761052987306 0.30158645729262895 
5.4920670090003645 0.24573009281279584 0.6855929366498188 
5.999513229723383 0.09032470105576151 0.5938688753316163 
2.0120765587228373 2.8557093492156715 0.03631728370804146 
0.7549127826097236 0.475616603409261 0.24480106754364572 
0.2568889204849682 1.9936792965356886 0.13153109660135281 
5.503026276226106 -0.1548591435034658 0.7022231572504545 
6.002492671890623 2.3065590100026108 0.3232747298346923 
5.247410191951498 1.8937700530278885 0.5646676102387524 
5.515524972043057 0.6842665978384406 0.7128944041072572 
6.242144706908276 0.4434480018344614 0.46635644246131613 
6.495373009181165 -1.7753418933585356 0.25473661605858344 
5.76642527376256 1.0909735374803797 0.7158977397263878 
4.505868863049415 1.6772271123668208 0.6793112611254364 
6.256345922485599 -1.4194632886312946 0.4620020327677321 
5.001058061730747 -0.8194425324438651 0.4281669616076775 
6.255127209461079 0.25135506999901797 0.46592561689479733 
5.502103372737185 -1.4066926884168984 0.508162639548845 
5.502137067662572 0.8382622114016474 0.7077854995370019 
7.002091749176199 -1.5240932825872608 0.06484311318597542 
0.25703870126505174 1.2461378731905828 0.12147973531160935 
1.5050876879463175 2.26587223300568 0.3483590703930344 
4.75579183896707 0.6611259967163094 0.3474451224806111 
5.746143355538879 0.04291905352054993 0.7139346834308858 
3.004414780632122 1.311339832350216 0.7083033169064136 
6.762167402120933 1.6354749591503752 0.20574854335793238 
5.247646239691495 -0.01638710910427397 0.5725507779017844 
2.246510888765768 0.33490658129016754 0.16271062230751845 
1.0069406409893844 2.430913436513163 0.26172771037323567 
6.511350189938658 0.17408569204425206 0.335682555006919 
4.497418400905645 2.2274159649594583 0.3798287615749024 
6.000252488391357 2.2426027520975933 0.3693027701378644 
1.2529347702799591 1.4783319586944856 0.6708093552512897 
0.5077355925073769 1.137154451918695 0.27666583413159956 
1.2479492370621388 0.0615402896701279 0.02370406993712197 
2.74819451049839 2.3033718940707195 0.34051144592234533 
3.016705578581609 2.0846183717165983 0.4502442913651532 
6.502077695269815 2.7559220834581684 0.08508790215316486 
4.503554655426322 2.8129644729500014 0.0604793923898339 
4.505770501468996 1.5898410672970584 0.7116603739127079 
4.006874334547441 2.1693612920548198 0.4071336998293723 
5.2511883548092 -1.6074374716293267 0.38269507735297426 
2.9950654133391192 1.7230566305466337 0.6458884914440535 
0.25170237127325373 2.1972806056610312 0.13693720312134866 
1.7464922021081284 1.995322445714821 0.49448875667422504 
3.003910746039833 2.085440656062662 0.4516462700371399 
7.009206331369117 -0.33638296437814397 0.052399065398791286 
6.990949173835066 0.9603568349599693 0.06601448167485505 
4.255783649072067 -1.5243284323261024 0.025997537579899553 
1.4962041646812145 0.8738847004789483 0.46952994440515144 
2.264088176700595 1.2554983775822341 0.6674316880627131 
4.002595707098703 1.5320092266331926 0.7878406284661094 
5.256139079089069 1.6896044981104161 0.6578477937624407 
4.000463476483238 1.4838176665163885 0.7979990061247294 
5.008006199747012 1.2389322925334465 0.6613419918415507 
1.2545317200966617 2.702770381924654 0.12404317928617323 
6.500720164056104 -2.034120251082134 0.09153749901819212 
0.7464022885423269 0.044743108910614976 0.009147272914074123 
5.985314378727806 -0.31346753783587383 0.6100462063970364 
0.0032444279643095244 0.9161659661348587 0.07713950932516422 
1.753665471465702 2.3424527155856985 0.3169583786707695 
6.996388376782751 -1.4733993672962697 0.05818057176856599 
0.5054633879950066 1.3859770092628707 0.25880165771207264 
6.004449857164983 1.9910628013485674 0.5038945259817469 
6.751925212771946 2.3667931527128347 0.19805705963876818 
1.7596245217218354 0.012683023120092687 0.07174860610096094 
2.511381365104263 1.9337026188909756 0.538213229653182 
5.000761083594533 -0.898676128368699 0.4273564564938976 
7.003074203094282 0.2940771076214738 0.05681141765247664 
6.756119925263377 -0.44879110534707894 0.20105621405627833 
4.75292555310463 1.596198784882338 0.7160412371760143 
5.747615434503392 0.5797301374277567 0.718197623162174 
2.002189307085226 2.889935644085271 0.02154502606791251 
2.755547564729545 2.777682650143641 0.0726402336408416 
6.00106561154725 0.4627609392554435 0.6037753601928575 
3.0069196782153558 2.3598565004877914 0.3143330613479117 
6.25175785397368 1.4242648662029591 0.4662785500530426 
0.7662369966321538 2.5581779226578303 0.18490317271364493 
4.990838675671004 1.8765434199632387 0.5628482755604665 
5.260307230956751 1.2823181584827388 0.6966494920351208 
6.007926440837056 1.1734207326449577 0.6014146367706407 
1.2581515119369475 0.891021579928735 0.4564996266568866 
6.248791102918548 1.7403103758501628 0.46473598496851404 
5.256139079089069 1.6896044981104161 0.6578477937624407 
5.999981610404733 0.24664611556109217 0.6016563394499873 
4.504134039429463 -0.5263895281966507 0.15349924752763477 
4.259357628898418 1.9209631992360683 0.5462932188523238 
1.2581515119369475 0.891021579928735 0.4564996266568866 
0.2568889204849682 1.9936792965356886 0.13153109660135281 
2.2525921274600256 0.8667128646650524 0.4596099431499834 
5.496696026738882 1.3246637783323825 0.6969415947431028 
4.999866878203896 1.8634916383399778 0.5698242101726919 
2.2608421326437984 2.0943349976721186 0.45198257663733454 
5.503690370504922 2.772564611808502 0.07777092648615956 
7.013170063385613 2.603959132563024 0.05308405512721416 
3.7573554381734966 2.5357954824870035 0.20347701546926147 
5.503690370504922 2.772564611808502 0.07777092648615956 
4.755668266135778 -0.11349731255496352 0.29343829313562286 
1.7554449366382483 2.0943460973079664 0.4523457926939728 
5.753383709008064 -1.2349717150194934 0.6085381818054696 
1.0046879629171088 1.890178423451044 0.5319599820362889 
4.003305691586524 2.846624218812526 0.04567986222545085 
2.0020545402136256 2.087191964608516 0.4470944257335518 
7.004287833181435 -0.156251543639341 0.05687469447108421 
6.509171544537632 2.202610745355864 0.33034318940879687 
1.9962594078414069 0.7193541720774526 0.38335495101167255 
5.248246269416808 1.691798123973569 0.6607945017487153 
5.262913400016996 1.2149189597038668 0.6429533100118786 
4.987745785482054 -0.5401634303460136 0.4271067743925786 
5.2569380590587595 -1.0892757502871429 0.5690129854106357 
2.5072623610494627 1.9392546188221975 0.5355238962557227 
6.2553724578413545 1.5530428697171363 0.458250942113382 
2.001159814629729 1.3962333329172971 0.7895729557526098 
0.9991144865352053 0.4567770332003078 0.24600051394709666 
2.997749550770796 2.6776552756020076 0.12613774984035264 
1.000036330378446 2.4572006187490127 0.26086044447445994 
2.2589479782361033 1.4604725894573536 0.791667527574349 
1.7503842237455154 0.4757846259219699 0.24304011612874993 
4.013204786722958 1.0097923944906944 0.5313686063940397 
1.2606141060134863 2.669975297401343 0.1303431430379058 
6.004664350397331 0.5111141195139617 0.6018477556832663 
1.001866060256109 0.9532341676030844 0.5022815300507857 
4.7419911748137435 -0.2479350425763703 0.29548132943687305 
1.0114617906738725 1.9836612448338689 0.5006291929602887 
3.998834204264523 -0.028880224740160977 0.04874085729964137 
6.50163206155731 -0.04155779990447096 0.32699569870608347 
5.502103372737185 -1.4066926884168984 0.508162639548845 
3.5012864812807085 2.904653121824827 0.07589645391681941 
2.50260759653015 2.1588526985527565 0.40913629451424016 
4.999691719859478 -1.48088697888538 0.41301510520964047 
0.7455380740601649 1.0763030133914298 0.3998882736029598 
6.506872418395678 1.1460367366270463 0.3149381177361474 
3.008168096599896 1.7917076043898976 0.6187332869229011 
4.260061496972741 -0.6150305561129845 0.020030786806280527 
3.757953095138757 1.782660258810349 0.6260679147356408 
6.25072956762551 1.4535267008787256 0.4688707411722011 
3.9945973630403127 1.565346292846884 0.7853582367842823 
2.0018940390987567 0.019783920806138756 0.0637146619436227 
5.509876082750414 2.401409894860508 0.266013205811991 
5.75764575380131 2.6462141422291774 0.1516403975874423 
5.4985959986647215 0.19193624258866254 0.6934527700290074 
1.2492432724732716 0.47174344885530306 0.2482819665835831 
5.749888826297411 -1.9429295153395645 0.13554968810562518 
1.0023094243163346 1.5470166978650495 0.5437476477080655 
5.25663685104645 -1.4130076509566412 0.5120380038623823 
1.2615242168850058 2.8644302886555417 0.03497983062148067 
4.258289658442958 1.9950229175429968 0.5004982562148088 
1.9867772130319192 2.3902782258422475 0.2799461517359747 
4.511630356623914 -0.19125422554214724 0.16867246447154458 
3.9991540541128123 2.6422483633609044 0.16108421660215633 
3.751070187659327 0.9520344809810205 0.5075670331093113 
5.751053615343274 -0.07404597774159266 0.703499972441933 
0.510655942442311 2.6522271068700167 0.1432676208958227 
0.510655942442311 2.6522271068700167 0.1432676208958227 
2.5076852378468444 1.0438781953400211 0.5529115334027539 
6.00674950706796 2.7746426395525243 0.07635682986421267 
1.759251296780026 1.6392393541310586 0.6925957217294844 
0.25380510968439673 0.4838193671622529 0.13293661646228946 
1.7585340869839237 1.5784970188126373 0.7221456000684533 
6.762634094013988 1.191238304952481 0.2028410019055289 
6.483537445639794 -2.0306998610950657 0.09400053696104571 
3.5097077920952056 2.2710808321154015 0.36357184571915646 
4.757710942633381 0.643286389111753 0.3469738933529073 
6.743223644844702 -0.8191145941356712 0.19580742508572466 
5.749888826297411 -1.9429295153395645 0.13554968810562518 
5.755755834981455 0.8622261422419301 0.7212295525814434 
2.0069705067173738 2.8281014897571124 0.055024017350383 
4.746939599563989 -0.7886182416338807 0.2932992646935851 
2.760454667694745 2.904324182697543 0.007679787695358101 
6.756954044474017 2.3706984980574775 0.19046530923629482 
5.240403567780434 0.47694051559441325 0.5584751398241607 
6.99723144634213 -0.690687488020263 0.052228061669516435 
2.4991559325781316 0.3497206854987544 0.17600093158206565 
4.502894362794148 1.9027005735274374 0.5492518600543151 
5.006043985006759 0.283610275792156 0.4326738687990478 
6.004664350397331 0.5111141195139617 0.6018477556832663 
2.9892956905375567 2.418746652140943 0.27500818833957075 
1.7583236961531132 0.09233429397448975 0.04082866203107827 
0.7485723642967914 1.8359843366188418 0.40793655485167746 
5.251779489441239 -0.8689897164967781 0.5599694768683976 
3.7471581033853942 2.2937014956838016 0.35382353491234686 
0.9946677649557237 1.8556501352730044 0.5335390732286126 
5.017511002167844 1.7558723630266986 0.6272066419664198 
7.003211577264125 1.4250406030083642 0.062113417748982706 
4.2500320123691555 -1.657125718427091 0.021883700204129525 
1.005338406804363 1.5359611655693972 0.5356593987973856 
4.504955924870859 2.5418067890496987 0.20941000663041306 
1.492167125983049 0.7380459943469885 0.40227411709912414 
0.5128009375938781 1.708607659604703 0.2626222447091096 
6.75007981085803 1.2405567294388662 0.18525200709551826 
4.754905767870372 -0.0015992067535423714 0.2925210721651136 
5.255544479641734 -0.5349670267009695 0.5811967492557187 
7.00017020732243 -0.7246634541740417 0.06489874955407934 
6.259160482816365 1.3554947545184683 0.45590082680961275 
4.5147801399017755 -1.147474472400003 0.15994100072396947 
3.7518998240877637 1.79723385722824 0.6122431111727856 
3.757953095138757 1.782660258810349 0.6260679147356408 
2.249030131830259 1.6165637994903947 0.7055020763738377 
6.5167323963299975 0.8629494172365518 0.32512723206671873 
5.256165991909895 1.1640816658586448 0.6269552194039197 
4.4962065299829765 -1.5101816111508608 0.16080963396412637 
0.25380510968439673 0.4838193671622529 0.13293661646228946 
2.000754214464569 1.4601798844614045 0.79466277707678 
6.753242410651467 -1.5994493417881392 0.1966757622946583 
6.50660548167697 1.4259771214086292 0.33018359768725686 
1.2496328643460166 0.2670231890268721 0.13102198997488526 
2.249030131830259 1.6165637994903947 0.7055020763738377 
0.5069010930149302 1.2258316868901382 0.2772983899401326 
1.7559577583027393 0.9279169785514407 0.5020467367508138 
4.756265389859657 1.799064659534215 0.6142801086361497 
4.999470056307321 -0.4108614153659162 0.4322163685847209 
4.257791053148829 1.9183370571442724 0.53058900158845 
0.9885524164962906 2.192523844750516 0.39745243730091095 
4.243221115307385 -1.3469059106996946 0.027071510673091603 
5.0019388410878305 -1.0630456590408446 0.4327460215433789 
4.243876212519776 -1.7853707809685837 0.023108075171150485 
3.754888811784704 2.575960455123105 0.18973734756115407 
4.255783649072067 -1.5243284323261024 0.025997537579899553 
1.0023094243163346 1.5470166978650495 0.5437476477080655 
4.502279601678246 -2.0626048717239542 0.06287984654361199 
3.0065229201295667 1.563486324022155 0.7173081126464779 
4.751820662214639 1.9306605073469425 0.5300387777379054 
0.2553209428670196 0.7337023210260332 0.12962243369384066 
4.761009596529832 1.497160605694509 0.7914604039199143 
6.0047065511203135 -2.1186873757971294 0.03411363573032819 
1.258382077243214 0.1431333667489774 0.05486915226689055 
6.758060131032002 2.3058635526007043 0.1961322777123091 
4.002679963611984 2.681866035020314 0.11786491812559284 
6.7511505264128155 0.5520354654093509 0.19106408526715038 
4.989256985508714 1.6516557036378898 0.6921851165315508 
5.009608009082601 0.6798573303592332 0.4257827897238838 
1.7472586633426985 1.229882015635563 0.6507607275313049 
6.245266582137713 -1.5934745816538585 0.37456932279225946 
3.2473998409566627 1.9877940430045131 0.5023108419100499 
2.2594020437517695 1.716778555033676 0.6455275026180728 
5.746167639772717 0.37999409332206496 0.7866956269229067 
1.2524770374858967 1.2912674265875481 0.6558966062961386 
1.002499249793812 0.2455609709464272 0.11912674788160407 
6.272463500675667 1.2870063824798212 0.4465052502621207 
4.008742422594109 2.4938166672779496 0.23294881254756292 
2.246510888765768 0.33490658129016754 0.16271062230751845 
2.2608421326437984 2.0943349976721186 0.45198257663733454 
6.0039952369358325 0.9133682200294302 0.5934131215271677 
3.5073818236429526 1.8295045839889994 0.5911400516414282 
7.000634095957894 -1.8773552881910958 0.04928527422283637 
4.492354430052269 1.2995516991068765 0.696612539887633 
2.741336644914005 0.31557314376906537 0.16795795527316604 
0.9946677649557237 1.8556501352730044 0.5335390732286126 
4.259673134641646 0.5277193615058551 0.27169981561513457 
2.2448044971810197 2.379507704366729 0.285034793831129 
2.010720785002299 1.5456245438171319 0.7908532243328107 
2.5051786239687113 1.0070400466582878 0.535206252228699 
4.496971081243401 -1.2136183004679082 0.15134469761743727 
5.010605856546622 2.144849572691487 0.4303592015489102 
5.76642527376256 1.0909735374803797 0.7158977397263878 
6.502230953627845 -0.5728511060078292 0.3369617100738431 
4.250095752772466 -1.8165940320784888 0.02534567081675922 
5.507787363743385 1.7784007666246935 0.6150720186733117 
5.001354692307649 1.5973259090919685 0.728459553187639 
5.001362669718732 1.6727471424817955 0.6724791498543702 
4.249440868960096 2.0515416944431153 0.45633281291299993 
6.509171544537632 2.202610745355864 0.33034318940879687 
6.739967051585941 -0.491175609350588 0.19853636450558848 
4.752302878921947 -2.087612933989431 0.035754706392639335 
0.4995388770172995 1.730304051672289 0.27150048023235146 
4.50007283338842 2.425684670669065 0.27922906641042194 
1.0114617906738725 1.9836612448338689 0.5006291929602887 
6.256606387798316 -0.35029958674655526 0.4705372420715602 
4.756004389291694 2.448536179605459 0.260027279565646 
2.509365618664209 1.455912003217394 0.794715979781736 
1.014855484472331 0.7057505877781899 0.37614370822364585 
5.509760367229111 1.3120659229998055 0.7007097659155781 
7.009014084414823 0.5640685939520428 0.05554607885027696 
7.005822426631164 0.9333759000083817 0.0516782603032239 
4.243248479396734 1.7161957818423959 0.6631435280924419 
5.755625993379582 1.6606723440995719 0.675051423678374 
0.2563057234299751 2.8833899836288888 0.02829107797649043 
5.750873563502782 -1.0269994593796443 0.7191336759612477 
0.5013458549793874 0.5712485495957346 0.2552038528833144 
5.001340678453994 -2.122224018571613 0.028928700983327078 
1.746572393285906 1.224979464487816 0.65910677265141 
1.9850421104886908 0.557324590627842 0.29601494596494465 
3.0055160024754035 2.699669095978347 0.11938921539028134 
4.498172445704092 -1.5579291199663867 0.16512052193189036 
5.510220709123037 1.7875590829454888 0.6043176613102199 
6.750288341195515 -1.9963000464352318 0.10770003595854338 
3.0065247624085156 1.4872289126797011 0.7817568062619963 
2.997749550770796 2.6776552756020076 0.12613774984035264 
4.759945203363916 -0.2506871651860379 0.29422503598382377 
7.003207997496068 2.8849323681264165 0.09132171359581684 
4.502279601678246 -2.0626048717239542 0.06287984654361199 
3.7471581033853942 2.2937014956838016 0.35382353491234686 
6.758540524317094 2.0206102307063993 0.18203014001625353 
4.2649401206555115 -1.9445474357518884 0.034524268702751694 
6.514578279474619 2.116950903808283 0.3285780395570152 
6.251984106322823 -1.4829611354421206 0.4459875328610076 
4.99383370736941 1.3120899447702346 0.7022541271790911 
4.4962065299829765 -1.5101816111508608 0.16080963396412637 
6.002251384610156 2.48541475357406 0.24096819075706477 
4.995999010224258 2.3393995931877107 0.3167100234458499 
3.490687307279418 2.0671087971401834 0.45601173903659853 
2.509991590583671 1.1681445565648052 0.6303656454763107 
