4.260217068354483 0.19639177004705421 0.12598067413399236 
5.754684507933624 1.5050578148740286 0.3001296860293254 
3.9972454235383723 1.4007258541404097 0.7140486842103386 
0.9969493862335229 1.6617466179149971 0.4685791575262931 
5.008701130898916 3.2538551463829695 0.8949726559804105 
3.997846472966652 3.9733915445260664 0.5999760247394911 
5.753622255825046 2.4528119242435786 0.3062205892979579 
4.25586889229753 3.395271325441391 0.8585435499712633 
6.259246489744564 2.2648613991947584 0.06552848794205507 
2.7520726619565368 4.474470579107574 0.35788130424633696 
3.9956691442132084 0.4405183147111239 0.24731389143730087 
4.757319700629623 4.296357897948578 0.4456153392519504 
1.2553622268937246 0.6023005920188244 0.3653977568063915 
2.7488336512246834 2.305466761588736 1.136153846558807 
4.250777783344737 1.337076725194901 0.7086002593801318 
1.2643861854827574 0.12898210828279333 0.07775062215510918 
4.273881404207753 3.691268031688884 0.7218577642000449 
5.4926526361452215 1.91541792009352 0.4470618300291405 
5.751499435470414 0.49172120189614205 0.2794279063968435 
4.247558365767351 1.126138403500549 0.6055071202443038 
1.2469934095123527 0.4378004873822036 0.2644190093725831 
5.4999646037681655 1.4972662677792201 0.46596828551703945 
1.9990329909300286 0.25972806414858046 0.15306117764806798 
5.512583344470261 3.7523786582047247 0.45333675448255045 
0.006374927332626766 2.3084330045127297 0.055022077168251186 
1.2426519701562768 1.1956548573729653 0.619582242207144 
2.7586408390380663 4.009008040567386 0.5699082156952765 
2.256426867165395 3.440997907787743 0.8349827225797781 
4.247967789225632 2.760480715196247 1.1468309347480439 
2.760322017093169 2.3800592426437817 1.195178809128101 
5.244789999429736 3.3261821656668045 0.5985260159230575 
5.75369133557845 0.42148398470625315 0.2327223425199656 
3.753884704020133 0.5862374154078903 0.34053565259798896 
5.754968749092972 3.509836992215166 0.2823281458841166 
5.246807827153145 4.086450106575846 0.5452274904626865 
4.247558365767351 1.126138403500549 0.6055071202443038 
6.242736102666319 0.28506538738059994 0.059212907756483274 
3.5050943460516444 4.772054657880774 0.18129393558690274 
1.5061486733512064 2.4127530401438193 0.9075033226412524 
1.5017205086967813 3.183589149355112 0.9371527644259621 
5.74911904216761 1.098273604753095 0.29789123440339743 
5.25891190846101 2.4236901296421896 0.5946311295681218 
4.769539308322064 5.089727559760678 0.06064835171647413 
0.24676668208460115 1.2082999465839248 0.09377095507458848 
1.518279450471939 2.397673053972515 0.913800486504564 
2.004774062561949 4.781737124982877 0.1751316834087699 
3.0055459784739798 3.7091352988940867 0.7256529061427948 
3.7595587488712225 0.1628442633100902 0.11200067977890842 
0.009022002820373404 2.117122783416771 0.06497373438884516 
2.006931343165486 2.5730449974461798 1.2599707332117782 
3.0048185613085314 0.7262518003729976 0.4187148973095669 
1.5039176162753685 0.17002939900401112 0.11114500381124394 
3.5086280698522088 1.2978262612194191 0.680754343236866 
6.2465783158268176 2.92838376034076 0.05941484696362003 
2.268315036372718 2.47832754105281 1.2599196920957196 
5.748509231231713 1.2640981002832332 0.30862220844923516 
4.012066776301979 3.14415739523201 0.982290388104631 
4.515149178171712 0.9447903338122833 0.5128951988971203 
2.249570762669224 4.524560121916386 0.34105966532249615 
0.2436514709050943 0.9206225263126105 0.10735345742942956 
0.24637287953573642 3.632931021082892 0.09540385609372488 
3.248213385604129 2.7650781205578703 1.1433039031207914 
2.003155321188531 1.2170687023480895 0.6439337452049549 
4.750223439641264 1.283001919177102 0.66880928472292 
1.0010501799575258 2.1475728384682924 0.46224159964916806 
0.509499653371938 2.484194529974161 0.22497808108170092 
2.003155321188531 1.2170687023480895 0.6439337452049549 
0.749910325298118 4.732932836000898 0.21439506802159167 
1.2579017977633655 4.092791365895279 0.5297949729554089 
3.75377048566572 2.1842402606204225 1.096587724743045 
2.252902309373462 2.7085752668249587 1.1743277699764052 
0.9938933386067048 4.991056200216964 0.05331605209021095 
1.753218323668127 2.384766946590882 1.1573738587248241 
3.0061077607242104 4.936999679367132 0.08542156974589546 
2.0156237311259355 4.67004580569233 0.2513396136338952 
3.2484847665907526 0.6100323709733217 0.3614392110697486 
4.253592249778861 5.056387168863757 0.08635435643916176 
3.7447045902346527 0.9005635812543002 0.49141344610836335 
1.743913800161281 2.0556710182707842 1.0228936817602363 
5.001443380904099 1.1057861126871185 0.5999732424029978 
3.254321650950682 4.231928015914726 0.4796364857560213 
5.013241697090027 2.954548797045829 0.8313473552803141 
5.266880175997264 3.4251019715280373 0.596775880916591 
3.5098736089307754 4.155433356503569 0.5165367255779986 
3.7588332597225413 3.9565810667395334 0.6049406879324213 
1.005338562232715 0.6062207963183824 0.365591022419016 
1.9951054972294329 3.335427374667618 0.8948825536225483 
2.9973179737113425 0.534652705779821 0.32257863461955744 
4.762574505543081 2.852447136268985 1.0732726039342677 
0.7568255473636802 2.7212053062997623 0.3388032390384001 
3.7588332597225413 3.9565810667395334 0.6049406879324213 
1.2598662651968215 2.3010464156153847 0.6951678808058532 
0.7551548406551424 2.809477354072939 0.341539632807382 
0.7506947712490475 0.7149070806787727 0.34714349799358357 
2.747609980160888 0.6209171592150903 0.37837142863202244 
2.256777920653869 2.6373859202046415 1.264037832616612 
6.242736102666319 0.28506538738059994 0.059212907756483274 
5.005668662558643 4.948535315751362 0.07125131341927124 
1.7510803353808797 4.953490851603219 0.07360953095726351 
0.7535990288129999 1.964285418101216 0.3336274460750939 
3.2535938384057945 4.863245147187461 0.1267153790432729 
6.244777345830085 0.24748338006053514 0.058382510560694933 
0.9983601601049367 1.110263541330535 0.5396657977562619 
6.000623206333975 2.4654622446236027 0.1756584891379293 
0.24717153688658622 4.666306102115279 0.10089057653223564 
1.0050059734948211 0.6219375249228923 0.3621537399845184 
-0.0016373910146075686 1.4594436937504962 0.058961541503464394 
0.25951519733810147 4.586986358651197 0.10584478576469733 
5.013241697090027 2.954548797045829 0.8313473552803141 
2.252146043766235 1.771067807152886 0.8973133798095537 
5.005668662558643 4.948535315751362 0.07125131341927124 
3.0002575354150647 3.7455669444627535 0.6975789197273258 
2.747783065832402 2.2277813089143077 1.1013277639579926 
4.501692114980459 2.4199171128270445 1.179248782792818 
5.011962866771002 4.216943644779431 0.487877443843275 
2.245894877485693 1.3268280202537623 0.6829732727278504 
1.2551208561778673 0.7840817306234789 0.44160212468083615 
1.9995857615057016 0.29334989347455337 0.16912712998763946 
2.255929826223275 5.062269756641474 0.08772799193759534 
1.245147380590839 4.284113652930669 0.44071671506399723 
4.509741637397119 1.1538268698463383 0.598516498771329 
5.748107765354642 4.90197909961779 0.09017871255805622 
4.513923697990954 4.527126939415242 0.3347738816495352 
3.0043825320725768 4.570972552424766 0.31092228196579746 
2.7511014646787717 4.487913307152357 0.3590881826287074 
3.7512544860144335 2.039005316792858 1.0231439290805313 
1.743913800161281 2.0556710182707842 1.0228936817602363 
6.264758684228579 4.4414614704941595 0.04983061057466154 
6.256746312581349 0.8129197259466778 0.05819070494258372 
2.0046332572452252 4.439132120236792 0.39130694352346895 
1.9972006183316007 0.15484886166965467 0.08432572209951748 
0.24396803320896476 4.6163071689813355 0.10539022454133382 
6.011961545707259 4.846927411902617 0.11959187655829624 
0.9978061761852998 3.9933208697078038 0.5381423796062207 
4.749390567220726 4.567277170698855 0.31954641874738815 
2.5112009570033083 4.312061582626695 0.44129719430965847 
0.7464446116315187 0.08370745505331985 0.044264214642236926 
5.751499435470414 0.49172120189614205 0.2794279063968435 
2.2498481650240554 1.5689960282382802 0.8048917965154103 
5.26230166138324 2.663747898923013 0.594307852907069 
0.5022629478133619 4.413913068185075 0.22480557924629957 
3.504014965646719 3.679268087109988 0.7297709339539122 
4.25875063126429 0.1876801982485975 0.10851158228384776 
1.5008615137564834 2.9706763926795703 0.9123392186748831 
4.758991498033274 4.259680259584421 0.46214325377089155 
5.2534668709546715 2.5589818993905524 0.6029856499998201 
6.007556636907687 4.8850345117872545 0.12322618722998088 
0.25850395676712784 1.95564416670186 0.0946876399778579 
5.510353787776382 2.8574960359018107 0.46978099529801287 
1.998573847702979 3.1466790224970707 0.9728328035733784 
5.005991655733808 0.3217491237209143 0.1910457969609684 
5.74596592218627 4.14849586842817 0.2988790358728876 
1.501157843843809 3.688243211453508 0.7307125776818267 
4.0134497142138725 3.5498793254878236 0.7969594031695992 
2.002097726222488 3.0166884250820964 1.0212696612212622 
5.754182893016652 3.114011534966787 0.3021979508936895 
5.002053614486442 4.082181950113219 0.5475844335685794 
4.012981600715173 4.243376709870697 0.47444630537631016 
2.0000319876173447 1.1419822331326452 0.6031315296256111 
4.256755477487672 1.709236272117791 0.8653266528891302 
4.5068652271948215 4.057015366076894 0.5660108288913988 
2.7582583648594774 4.716800036005494 0.22095287233775623 
3.504946412815218 4.083357782006173 0.5528454996546037 
5.262885801204332 2.7755949990806688 0.611024116379927 
1.0050059734948211 0.6219375249228923 0.3621537399845184 
3.7538473965174384 2.2629259744896655 1.1116600010407913 
4.510069785634896 0.9109467184638279 0.5024652582448598 
3.744968903906853 2.2224993401192186 1.0997128583964075 
1.7695370436410873 2.847345793590028 1.1143881043936226 
1.7478151945557308 1.3489826266649343 0.70007835670627 
5.248275352608744 4.8363625757806465 0.15257767866120067 
5.504699400632708 2.5221374318977223 0.4666627536487778 
4.256755477487672 1.709236272117791 0.8653266528891302 
0.4981769758683921 0.6942939120307144 0.21799377162275138 
5.0080495905644575 3.8105835140450495 0.6694597030051653 
1.5103494136431668 2.255492754410511 0.9100480892477499 
5.004919884829135 1.9725127539137823 0.8259081638798725 
2.503905579688612 2.7793742278173696 1.1417587264109517 
3.999469467819599 1.7717677249070918 0.906804250137073 
2.7480558935392247 4.04080452175776 0.5622606701781419 
1.7695370436410873 2.847345793590028 1.1143881043936226 
5.510353787776382 2.8574960359018107 0.46978099529801287 
5.002769413031766 4.821013352874279 0.1599438710338231 
6.001718888126458 3.1620238248424486 0.1838395542958174 
5.751850376755295 3.8313358797514487 0.30308901734364174 
1.5003214858108955 4.342048338576395 0.4308217524212602 
4.762574505543081 2.852447136268985 1.0732726039342677 
4.006289477636079 3.388850026492175 0.8590650596386303 
5.750615537954759 3.2863389170913995 0.30449153987504224 
2.738574258572158 1.3312633907344698 0.6954739585358015 
0.7592502161576743 1.4211004802199245 0.33368802408047565 
2.003155321188531 1.2170687023480895 0.6439337452049549 
1.510610648666286 4.1315506368626025 0.5260415910384022 
3.9991127005658895 4.92824752452229 0.09536760917899703 
6.255020145352994 1.2338956379740014 0.060693132525532455 
6.251014694890645 2.2718194780069756 0.05469159495818761 
3.003321511854255 2.142200959445955 1.070166716735433 
3.0117115294202037 2.0247676903527085 1.0207068699734456 
6.007519879183512 1.2258534342044827 0.18582764497396517 
1.2579017977633655 4.092791365895279 0.5297949729554089 
5.500470076385788 1.812437454945633 0.4419323028717793 
0.25540758873092856 2.7171650314829803 0.10436149820304963 
1.2565923023185985 0.47976612558344683 0.2875833988496594 
6.011538444152374 4.567376924422247 0.16758744423030306 
3.5020631900864414 1.5022417626379687 0.7776509294220456 
6.257584710809767 2.860440307852082 0.055878015216360946 
5.502918137278087 2.7042983394781386 0.46119838973147714 
6.247080312625212 1.5114694665656205 0.0676951576851079 
1.2579017977633655 4.092791365895279 0.5297949729554089 
2.2414842731296716 4.033032647573253 0.5697629744201078 
2.7498868699297687 0.06118920308456402 0.04467241420608291 
2.7511014646787717 4.487913307152357 0.3590881826287074 
4.2643669726959175 1.9177158771631304 0.9688188809505294 
0.2419453385354486 1.2442445889650493 0.10662778312026137 
1.743913800161281 2.0556710182707842 1.0228936817602363 
2.014028390964573 4.204535028130227 0.5000904491920809 
0.7512809366175136 3.260642118995781 0.3430669162292283 
4.248640883626203 3.639298178159818 0.7389896149684804 
5.011593286816557 4.25157729268295 0.46612248418897045 
5.01171183974182 1.4920056323417872 0.7611611813948406 
0.9945846544519514 0.569515402800117 0.35294230468138643 
5.2596427805064305 0.07872215002519356 0.05023323725210597 
1.994801862219803 1.9285940090939613 0.9756522726475723 
6.241454211924922 2.711293083579043 0.06504665336444306 
5.502954964468572 1.4731259972092412 0.44791899327186196 
2.5053989260791902 4.851945881975784 0.1440404282347309 
1.7531717516306156 4.287332115817353 0.45754211334946127 
3.2513828672069445 1.7309027057993407 0.871882073680285 
0.2616090634332801 3.9255161013367474 0.10164775287692569 
4.768100115189535 2.7178110237247046 1.1179590128423649 
1.765924179584978 4.1261162365782535 0.5277026847480198 
1.5008367353863286 2.0574412834732327 0.9707616692044643 
1.243690793042216 0.3850710286900404 0.23144221437043686 
2.742765142892111 2.4982363727765375 1.2667452291995736 
6.005392415569309 4.339133221112532 0.18416624274664453 
2.7554709998404987 1.802296617684568 0.9137425608216246 
6.000234598546155 3.880649009258153 0.17407073191661 
5.269729456048579 0.848130080651419 0.4816038812946341 
5.758657815326829 3.4351697221686215 0.29596876923631826 
6.260109546440085 4.85768070358424 0.053291888010767535 
6.007617084328148 2.1992271466306077 0.1876577234116016 
1.2489457175912457 0.7459689193097289 0.4293358655055272 
3.499744199943619 1.5560643494542903 0.8011659939809062 
4.012981600715173 4.243376709870697 0.47444630537631016 
3.250726053105521 1.3491702717264056 0.6963497155944319 
6.254057793765273 3.21189365597528 0.06568934587751162 
0.7485810463500501 2.551446465752541 0.3512957517424465 
5.500749039855049 4.38900745701449 0.40415154536048375 
3.506312237463743 4.924534663531681 0.08944409582309444 
6.249229523061438 1.8201466805305992 0.048867578654732895 
5.748107765354642 4.90197909961779 0.09017871255805622 
0.7623466493211289 3.1309352072581382 0.3413387750673482 
2.7511635079767625 2.912150509038221 1.0803684748335962 
0.24266428623393746 1.752970787465298 0.10785665760280996 
2.752457211818834 1.6891742962565026 0.8681120068161755 
1.4987004370591335 1.8362589514836745 0.9066938843698293 
1.7573361982080382 2.1336760451544405 1.0658004778039236 
3.74106163433912 0.014102962643966427 0.08488298435823498 
0.49824565490157685 4.0816162031591485 0.2140371905977761 
1.7569356491382901 4.061596293281597 0.5409920501413462 
6.007556636907687 4.8850345117872545 0.12322618722998088 
0.25689008746868786 2.475380195115887 0.10429892842835972 
3.7569560785928435 3.945203755467558 0.6136381577938999 
4.509413118160411 4.777243255358313 0.17915726208820373 
1.510610648666286 4.1315506368626025 0.5260415910384022 
2.00170304202638 4.997242436145299 0.042258342650575674 
1.7527716296078668 1.120769901108421 0.5976818865223136 
2.758946208480182 0.21880719788937628 0.13047548422988148 
4.492113952145119 1.448033529597412 0.7492897333327014 
2.26160063240439 3.6511379080964144 0.7390640099660254 
3.7447045902346527 0.9005635812543002 0.49141344610836335 
4.988484113261224 0.859707073559664 0.4770588455240031 
6.257384735589683 3.2667028479554694 0.059900739757916904 
3.498356339638787 5.034110170038538 0.026889270166470955 
2.0003175585248925 4.790154843647406 0.17163798126049853 
6.0027594745401185 3.145290049061774 0.17865176705115118 
4.252733458763517 2.7059294988867117 1.17994439226496 
4.7602291363258 1.743900584985496 0.8839706706477931 
5.755160807625644 1.8083449700091292 0.297245388552609 
3.260579155180486 4.296390809659867 0.4405514750735176 
2.2414842731296716 4.033032647573253 0.5697629744201078 
3.7624140816948985 4.386150909447072 0.407039620004203 
2.5043951115865957 2.0295262568034804 1.0129236589555761 
1.7549147993132093 1.2052601754789862 0.6341375960685273 
1.0087112189695389 5.005609924828764 0.055929965306972466 
2.505584528238557 3.9714769326790913 0.594234063402376 
0.9945846544519514 0.569515402800117 0.35294230468138643 
5.246807827153145 4.086450106575846 0.5452274904626865 
4.251371924947123 4.634709943261429 0.27444769877011654 
5.745485103622221 0.9090137913011337 0.29385677378057806 
3.2586388641390203 4.683704920894253 0.22519337184006957 
6.25050930269137 0.898626795246874 0.06716196253586121 
1.7553897527384865 3.037559857184784 1.0199053056452063 
1.5165791641513373 4.151236244544401 0.5102395064714154 
4.75518243842244 3.4301591036976093 0.8373592022913897 
2.0053499702808426 1.7956663073767851 0.9037489899176909 
1.7502234096752025 0.47801535736422407 0.3030854176268016 
0.5141879165008474 1.8731046769895148 0.2211819876610919 
5.753110083687453 4.166829582484632 0.2918813495329037 
3.2532108576458243 2.1867735856336212 1.0832349106343129 
2.006838878366466 4.982119942760412 0.06740668266645257 
5.26230166138324 2.663747898923013 0.594307852907069 
4.506938216343864 4.724801979234705 0.21772852588559874 
4.497903277527273 4.165315593348915 0.49661494343712176 
4.750223439641264 1.283001919177102 0.66880928472292 
1.9971133130024208 4.335120890440207 0.43878513281990406 
0.5116137586767595 3.458660518610146 0.21476311150432437 
0.2654784974149035 3.7200681519833725 0.10661109692948288 
1.0011981723283652 0.398475738080184 0.22390519126538835 
4.507687112592798 0.9628502011989666 0.5291652358146969 
0.4995881890693515 0.29955303925395504 0.16724047523659086 
3.2562272578785487 4.107853048765971 0.5413658421100973 
4.756210042194927 0.9534096718922941 0.5201571303596146 
5.996708667783645 0.5501480692989926 0.18385401865614007 
2.758973623679669 0.9691717232815412 0.5287285511127457 
5.747767484888345 0.49126610058598247 0.26727429620657367 
1.5010025014150121 1.4697604688840527 0.7560111339045652 
1.7531644173952914 1.7298083419326975 0.8832542844181255 
3.255716742915668 0.6708060799030277 0.39466449157986294 
5.74911904216761 1.098273604753095 0.29789123440339743 
3.260579155180486 4.296390809659867 0.4405514750735176 
4.243158946481937 4.572083946318875 0.31276609783696646 
1.7526275035056174 2.985614230617204 1.0518528978790254 
6.263399224296844 3.9360983217703063 0.05116142149248488 
6.010659702924204 3.3109516982248977 0.1768698214407075 
3.9972454235383723 1.4007258541404097 0.7140486842103386 
1.9997477422486756 3.1633586698163665 0.9670707967972618 
4.990768788922126 3.273451536574982 0.8881334315036036 
5.996708667783645 0.5501480692989926 0.18385401865614007 
5.511968018245169 4.410893836910404 0.3859187226271313 
5.254398566022284 3.6802261335976256 0.6731402654056661 
5.2422548366232 1.005783014558626 0.5450444458167719 
4.251076656525118 2.588068290296523 1.2536291908948316 
3.2500001667013794 2.881174206909986 1.0992842490912893 
3.0044316651971696 0.7821322015150538 0.45164939028615136 
3.9991127005658895 4.92824752452229 0.09536760917899703 
5.24575028759612 1.6406212986391788 0.6121428338058172 
1.497831566371036 1.1631743471928262 0.6272717853932287 
1.996603904777475 3.5689122694104687 0.7794856959340749 
4.753002448539316 4.073958968089875 0.5434913182517827 
1.5061486733512064 2.4127530401438193 0.9075033226412524 
0.49741774063937993 2.178288925194118 0.22827451592532455 
0.26553783257070085 2.3173110420034297 0.11836765862206003 
1.009453176305785 4.89328328800899 0.11414705941856898 
1.999246385152365 4.9316028474054185 0.08005769747170581 
0.9983601601049367 1.110263541330535 0.5396657977562619 
2.7608591614782516 0.45199586970689887 0.26358227106421084 
1.2646806183945374 2.669074108753516 0.681770257071731 
1.9995666318879883 4.815359933782385 0.17351577778444777 
1.7631116206733477 2.921665579598965 1.0881040798236499 
3.259089530276614 1.226756893579171 0.6393990124619986 
1.2407591707858259 5.083806756311663 0.07488763651029515 
5.261118060282267 2.0695890607641267 0.6036752378342083 
0.24931682177420622 1.9639929279086132 0.11565997331753214 
1.2499553308859617 1.2964855510617401 0.6643435944432646 
4.502863995287943 3.3317506168725584 0.8946819657986654 
6.25228942810265 1.7656785296704949 0.064294074024416 
3.763977081535609 4.368156679316403 0.4134400558205823 
0.7543009810180422 2.7407177794816664 0.33751490201158985 
3.758904479644383 3.372212012781974 0.8722139873908485 
0.7601126510640485 1.2320280139334698 0.3361450346147673 
0.7553637214300329 4.004514878260468 0.3457636876853973 
2.0023112370012917 1.9382281648964197 0.96820072690233 
2.0023112370012917 1.9382281648964197 0.96820072690233 
4.5023001521624115 0.8316584865023308 0.46572327227084437 
2.9981024378827676 4.0775664822582165 0.5493260594796657 
4.259781660003186 1.1466071858551181 0.6141922911925973 
4.255313135117666 4.544159959128519 0.31368802608953794 
3.7399472330032437 1.6250845933100466 0.8346088146024373 
3.252978235574873 1.5017272168075901 0.7671442368911917 
0.9978061761852998 3.9933208697078038 0.5381423796062207 
6.009529538926424 0.23507331899605094 0.13993354643114175 
6.250136714442202 1.9722944893579915 0.06012255683827056 
3.2521568364247706 1.1155155589445624 0.5971067444746662 
4.995557077182575 0.3500062062899988 0.20766761442208345 
2.995852005115453 0.309455430964679 0.1887080600411128 
1.501504527128105 2.375919082366419 0.9074896740639701 
1.5001929900660065 0.0516921963240282 0.022787779244068034 
4.002423414757648 4.560859220804674 0.30324708444716203 
6.002847667548269 1.5344726205027475 0.17938233111944618 
5.257084294125077 4.11638903031898 0.5214510712939067 
5.008961182267554 4.990005384181894 0.06731768052647738 
3.262009537379496 4.32433925300029 0.43058124329779074 
0.25733089914034185 2.642811978700971 0.09874541834207035 
1.2483688611918573 1.120888346424373 0.5993307472734571 
0.9979613336529775 0.3947493773400373 0.24696663308814754 
0.9894064721263147 0.4817981127325688 0.2800573109140489 
0.014900264980428693 4.715726466744041 0.059041284547526676 
3.5020631900864414 1.5022417626379687 0.7776509294220456 
1.7559633485434252 3.177069003235552 0.9614194987803757 
1.9956103184996203 4.127217200205423 0.5334205407509904 
5.249146582135848 4.119693704048046 0.5311238775575227 
4.273881404207753 3.691268031688884 0.7218577642000449 
5.756895527948215 4.851253989845289 0.12651623360858114 
2.9981024378827676 4.0775664822582165 0.5493260594796657 
5.254398566022284 3.6802261335976256 0.6731402654056661 
0.007165711696845917 2.74162274744437 0.07185601776230471 
5.512178241471602 1.034698131551526 0.4557154800020316 
4.256755477487672 1.709236272117791 0.8653266528891302 
4.255313135117666 4.544159959128519 0.31368802608953794 
4.256755477487672 1.709236272117791 0.8653266528891302 
2.001101198348003 3.720831741213989 0.7117011610361041 
2.511627597030362 3.367819466833265 0.8727273879305847 
2.9973179737113425 0.534652705779821 0.32257863461955744 
6.257060528741188 1.9116819837931862 0.05287468444937566 
3.7454995182362327 0.8228827415915384 0.47749191736374375 
5.75400270661682 1.4946667990032043 0.28280906888116675 
1.5017205086967813 3.183589149355112 0.9371527644259621 
6.255634521210498 2.648891318611981 0.040776636285820754 
0.25869487781722705 1.3193477112293481 0.10115845109550665 
2.7607886401775588 4.079836285325786 0.5507781212309119 
3.5020631900864414 1.5022417626379687 0.7776509294220456 
0.004582627493914655 4.048888464121607 0.05969482647835209 
4.48805805802649 2.279793752929755 1.1266667111198325 
5.014017064549044 3.7597012846144007 0.6928683780224215 
5.265822561062118 4.269622557912401 0.46169609630205954 
5.251610044566725 2.709522627337782 0.6053797985098546 
6.007519879183512 1.2258534342044827 0.18582764497396517 
2.747783065832402 2.2277813089143077 1.1013277639579926 
1.0050059734948211 0.6219375249228923 0.3621537399845184 
4.501197282633944 5.022630069544902 0.03239577573815813 
4.005684541014106 0.7878344307119917 0.45057575218628526 
4.7414823686821554 2.3052935969017065 1.1029401097269846 
3.235485660742255 2.5449542655508526 1.2688040848441606 
5.252323412905852 2.1113213106539783 0.6144511658329036 
1.0019258205332737 4.338482315655718 0.4237931955100593 
0.49958235575979726 1.8519418990231526 0.22305290624345922 
4.273881404207753 3.691268031688884 0.7218577642000449 
5.996439288399072 0.12186531442017026 0.07011429465184248 
4.246660224424035 0.28205560069077007 0.15998302722024205 
3.257464727892138 3.446934752593499 0.8368331815750734 
1.0214478742250728 3.702472368014144 0.4830231141188323 
3.7645546901170097 3.7316194501167175 0.7001588012199834 
3.2427820512966714 0.05854075245855258 0.022398789485600142 
3.7558843706608855 3.1327302012543896 0.9725691528980589 
3.998791334640255 1.0920504472576105 0.5816490318462026 
3.2501851418365106 1.1775666283136794 0.6217819072265497 
0.24697906391893407 1.1773252366893245 0.09310819648327204 
0.49389744641930433 0.6383332149993222 0.220392036786166 
4.749390567220726 4.567277170698855 0.31954641874738815 
0.24691474468961994 0.7668881693229553 0.09285050733607933 
4.749459950266781 1.0969862446863414 0.5795056318059097 
3.5074523497355496 1.9407310082812985 0.9713474346801761 
3.5108712984823613 2.814354338969984 1.1184141360308695 
0.7535990288129999 1.964285418101216 0.3336274460750939 
1.0056366372516699 4.114082372316359 0.5083108497747537 
5.008701130898916 3.2538551463829695 0.8949726559804105 
3.504975466532079 4.5925086876316925 0.29145353335495255 
5.996952557468747 2.461021322601752 0.18150138453832373 
5.760196550739564 2.2652017816361036 0.29382770062561153 
1.7518635832022356 0.9151608173826815 0.5108776424144896 
5.774596674774818 2.244332072391377 0.2807208740860373 
1.4979874068835135 4.4500927474549075 0.3658486457070974 
3.506069187388445 4.046971021263858 0.5574450221466326 
3.002680834580076 0.1073034942407304 0.06264049151816171 
3.7517381227964037 3.3399320125350305 0.8920181872304952 
1.5001929900660065 0.0516921963240282 0.022787779244068034 
5.248275352608744 4.8363625757806465 0.15257767866120067 
0.2456160949229575 0.7950405454933966 0.10772165215632624 
2.2498481650240554 1.5689960282382802 0.8048917965154103 
4.518259088187381 3.5417521464634643 0.7862523698647346 
3.2611244835712587 1.3176191859908846 0.6800934125794735 
3.2543112654402475 4.905654016521182 0.10749030299572927 
2.7514465314499446 3.172957739137648 0.9569112857667212 
3.2584980152471474 4.799380520708643 0.1703703068171188 
2.243691478865764 0.030480550410270417 0.02040733117047146 
4.262345113229199 3.7055893041749752 0.7225309768597302 
1.742109728329612 0.35169613047495474 0.20655059614826715 
0.25583222430708796 3.6018308286759786 0.10623102115110841 
3.008645666416412 1.6256034274380458 0.8312856541755965 
5.5110450078648965 3.125398040645449 0.4468746852059996 
0.764609317202447 1.7102834925069408 0.34519769863536526 
5.25106026654664 3.0575293687179617 0.6061990236279255 
2.4968189003492918 2.9116303932361856 1.0809132887548534 
5.020953297699243 3.858897555244775 0.6517079289284322 
5.504699400632708 2.5221374318977223 0.4666627536487778 
3.999403359988424 2.952513045926105 1.068560056759467 
3.0005973268470694 3.756498077013609 0.7177109735174567 
3.000529144131013 0.569644315305405 0.34217628023664876 
4.750046400738125 3.6458457698726274 0.7536116854442815 
1.9956103184996203 4.127217200205423 0.5334205407509904 
5.262885801204332 2.7755949990806688 0.611024116379927 
2.500517870447765 1.9819582827900093 0.9887621861435574 
4.252733458763517 2.7059294988867117 1.17994439226496 
2.4971169676458342 4.886153024510048 0.11670412126535784 
5.996952557468747 2.461021322601752 0.18150138453832373 
5.501515042352214 0.8881722351537173 0.4340358591388248 
0.7416916070192815 1.333143104331113 0.3388821184851805 
0.7506947712490475 0.7149070806787727 0.34714349799358357 
0.752375923813529 0.9395262089508748 0.334863109052437 
6.250101639012177 0.01622331803877903 0.06942230182637672 
2.2610808383552055 2.7471893860581713 1.1599146791881836 
3.7648230314590903 3.8999044119135142 0.6339904864663876 
6.25562412926913 1.698307716747733 0.053645014812681406 
4.995557077182575 0.3500062062899988 0.20766761442208345 
4.504293456914849 4.463893882279741 0.3766756081744396 
0.49825988561807166 2.099257871612204 0.21274069806106694 
6.26383355583069 2.970823860071716 0.06685726166925737 
4.754217670686958 3.8069321780191334 0.6635225693176735 
6.010025326021759 4.852191724903122 0.13010296864999482 
2.758946208480182 0.21880719788937628 0.13047548422988148 
2.7520726619565368 4.474470579107574 0.35788130424633696 
3.755751390865176 4.351699561807797 0.43417444088167007 
3.998791334640255 1.0920504472576105 0.5816490318462026 
6.000052506565773 1.434570567752178 0.18499071316656052 
0.5147558145910945 0.9810716642258581 0.22668057621084498 
2.754698523628254 2.3493271379260934 1.1480678387356213 
5.749426295722918 3.0770936988468565 0.30268507187072285 
2.760194775256518 3.0890575053150586 0.9976744742486962 
4.766303078528338 5.084732859772893 0.06482576842061819 
1.510507070836776 0.1473407272706686 0.07673337295080346 
1.005338562232715 0.6062207963183824 0.365591022419016 
1.7472347992310697 4.446183210697402 0.3860836772960089 
4.250777783344737 1.337076725194901 0.7086002593801318 
2.995852005115453 0.309455430964679 0.1887080600411128 
1.5049734410082989 2.458441568606135 0.9138524135483999 
0.25385591907891497 3.8399982689603487 0.10566887548434528 
3.75377048566572 2.1842402606204225 1.096587724743045 
2.7636356858298843 4.79022880101514 0.17339368022493074 
2.750100082336334 1.4781457501968382 0.7580002071566042 
0.010558164512456999 0.08047504546854495 0.05233617448293988 
3.250709200458422 2.262017944340224 1.1146645309302516 
6.007292684711945 3.97030908069316 0.17901002713157566 
1.2604860553664816 4.6495035839983885 0.25125847455905853 
6.2531238772017375 4.80878104400822 0.053649510108506555 
3.5087287939625234 1.266330066503658 0.6651907303046956 
5.755831058246966 2.0784166672191056 0.29612414958804034 
4.255636976047411 3.158082111649714 0.9601501259129791 
5.020953297699243 3.858897555244775 0.6517079289284322 
0.5096134125777935 3.7337910824756317 0.22716921079877753 
-0.001602657487535285 4.905790428815681 0.06281637869394831 
4.002164670329913 4.990088995437977 0.05582282476056762 
3.997905545090812 1.9753565700225273 0.987127003743531 
2.268315036372718 2.47832754105281 1.2599196920957196 
5.2495885263968045 1.7420496178918343 0.6147423007405856 
2.7454926194947302 3.941892481143601 0.6132308236065982 
4.7414823686821554 2.3052935969017065 1.1029401097269846 
5.756960594571332 0.9082595118992208 0.2860654557733129 
5.261118060282267 2.0695890607641267 0.6036752378342083 
4.254251697765677 2.5316422479509515 1.274795738216923 
1.996093598678459 2.1940003159342365 1.0924370947624822 
4.7629233084774105 3.8643345749093423 0.635546311853658 
4.753318658833455 2.84544544723491 1.0811253626500914 
3.2575048065408816 4.117775774496944 0.5465907645097596 
1.7569356491382901 4.061596293281597 0.5409920501413462 
0.2545708450614207 4.737102490163811 0.10571165537954594 
2.492946897260888 1.644326705006962 0.8427444825533164 
3.2582471058790548 4.704592377802714 0.2227481108712288 
2.7498868699297687 0.06118920308456402 0.04467241420608291 
0.9960365563632879 2.5564085056095323 0.4616051527750011 
6.010360517742042 3.5128959409188747 0.16577436188354022 
2.0018644433553177 3.5535558070635993 0.7895281229160893 
0.4985975516806179 1.2648247942077133 0.23398083703225958 
0.9979613336529775 0.3947493773400373 0.24696663308814754 
3.249082559568884 0.834781389146946 0.4840239965163056 
0.24691474468961994 0.7668881693229553 0.09285050733607933 
0.9983601601049367 1.110263541330535 0.5396657977562619 
5.516279322926065 2.989884465579668 0.44960072565437 
4.003479413695888 1.2985033001816935 0.6798487768639762 
1.2483604947523388 1.70196644294963 0.7011428919629644 
1.0010501799575258 2.1475728384682924 0.46224159964916806 
0.26553783257070085 2.3173110420034297 0.11836765862206003 
6.248769212470413 1.433409632474946 0.05835682268622781 
6.008432543584852 5.0319253682596985 0.015924191755533158 
6.2569951066414795 0.7050222488840956 0.05932207844468648 
5.501315244061921 4.533499467244767 0.33950813311581846 
3.745238873167057 3.630157998349338 0.7600189882005601 
1.7631116206733477 2.921665579598965 1.0881040798236499 
5.001473815589753 2.4075103749184126 0.8308544366774733 
5.003818313679315 0.7945824373787809 0.45411329996463357 
4.261156067129144 2.730291148301266 1.1660220161675656 
2.7450078125445643 1.8111183665014028 0.9034897920006308 
0.7458182859335843 1.0277810475142282 0.3325257495166755 
5.996708667783645 0.5501480692989926 0.18385401865614007 
0.24637287953573642 3.632931021082892 0.09540385609372488 
5.005991655733808 0.3217491237209143 0.1910457969609684 
2.2577267282483615 1.9381239150135443 0.9640187315686365 
3.7549896946506225 3.70936869876527 0.7176151516601212 
3.5107051206266857 4.324762848570325 0.43774674303617406 
1.2496465928707878 1.6991502563246623 0.6794581359870362 
6.251061527860411 4.8509192428384695 0.05766788630428216 
3.0042484110902734 4.683808206839938 0.2510020049381197 
0.9950103249877741 3.685013927395162 0.45241596967420694 
2.4930999295249374 0.9330944755444743 0.5213259611048834 
2.738574258572158 1.3312633907344698 0.6954739585358015 
4.752714515058652 3.6642022246300994 0.7438366234103966 
1.5165791641513373 4.151236244544401 0.5102395064714154 
1.9972174471712265 2.3626296203825743 1.1648505543338226 
4.248391293099756 3.658083575885492 0.7435023221496277 
5.253400321662267 3.4620660267851715 0.6064345409019206 
0.7509288108376152 4.317809129232531 0.34775549099246433 
3.9949661524497047 2.7151862923530734 1.1752738640661817 
2.4949210618885234 4.267119242000072 0.4570369744109267 
3.5074523497355496 1.9407310082812985 0.9713474346801761 
1.7464423499278054 0.18327373219186185 0.0978301067497183 
6.243296515610407 0.010256228359793472 0.08164750440490105 
0.24931682177420622 1.9639929279086132 0.11565997331753214 
3.999403359988424 2.952513045926105 1.068560056759467 
0.9978061761852998 3.9933208697078038 0.5381423796062207 
5.247687245469248 0.020651682711310168 0.09471551887861376 
1.5005359613893967 3.246492741027855 0.9283748105898944 
6.256175201457863 5.061561169940378 0.08690960450379095 
0.747586628490939 1.934890840341839 0.3398893934904087 
2.001866396930273 4.756963926726915 0.2037938002464943 
2.757077499162008 2.491267420215432 1.2563122266250606 
0.25761201597365047 3.0188292908788927 0.10221366864287833 
0.0006823095304232772 1.0283076164262162 0.06354525631796039 
1.5050274165257052 4.8885952475563546 0.11403291827112932 
3.0023640300479197 3.7544413787802924 0.68693860955274 
5.503164473829314 3.866350354392527 0.4510513327092413 
0.7601126510640485 1.2320280139334698 0.3361450346147673 
3.502572507468949 1.5002028099014089 0.7656045467130832 
4.755869533470263 1.829253429816051 0.9191618348250004 
3.2685318639871066 4.96100914945259 0.07719025884859937 
1.0056366372516699 4.114082372316359 0.5083108497747537 
5.758657815326829 3.4351697221686215 0.29596876923631826 
0.00710741671399789 3.7212552008495896 0.05881824273912247 
3.7558902416712794 0.9956650186707193 0.5416507227100956 
1.0015892133225135 3.163871476308858 0.4627063288638366 
4.256755477487672 1.709236272117791 0.8653266528891302 
3.7539914634167255 1.489469848464744 0.7715883972506276 
2.2587843808194523 3.841056257196007 0.6474448544982473 
5.008701130898916 3.2538551463829695 0.8949726559804105 
1.7531717516306156 4.287332115817353 0.45754211334946127 
3.0061093980798566 4.347849141938777 0.4193110720968321 
3.50056846507155 3.712292722918363 0.7087278710575189 
6.2569951066414795 0.7050222488840956 0.05932207844468648 
2.499891068742545 4.747825579830074 0.20268188780443383 
0.007472349963720294 0.6336505388306113 0.05880746448213992 
5.001443380904099 1.1057861126871185 0.5999732424029978 
5.999344820545547 2.6917148209985653 0.17993934154725205 
5.258498373259465 0.5873771329547197 0.34866843909736794 
5.745318102876346 2.885234386506755 0.29848524675860433 
6.2465783158268176 2.92838376034076 0.05941484696362003 
3.5119543897015997 2.973446091709744 1.041618357916625 
1.7695370436410873 2.847345793590028 1.1143881043936226 
4.2592758922772544 4.7006492286778805 0.2258159379424728 
0.5104398746022412 3.318723592516264 0.22376338156736617 
1.0053920423491156 1.4922131706150352 0.46691220488039564 
4.247964457103862 3.041768225622842 1.0231098865736228 
3.2501851418365106 1.1775666283136794 0.6217819072265497 
4.503506261495179 0.11032303072576144 0.0557662339136534 
1.2546913994148894 2.027459656579953 0.6933878050299201 
3.000646842181893 2.197140244737455 1.0886502402167602 
0.5011590180143617 0.9167186468419244 0.22414517114089783 
4.0024206660544435 2.470782133019733 1.267241007946863 
2.260728593045175 1.023669293330812 0.5604355641455835 
3.9977284467129026 1.410161294553611 0.7341341008105893 
0.7512809366175136 3.260642118995781 0.3430669162292283 
1.4959058359228272 0.26779893246225395 0.16270335642626482 
2.4993809570487544 2.906563014141142 1.087290401430343 
4.5090625967802325 2.3814967213899623 1.175571965184346 
3.0086188796753635 3.4631242342226622 0.8208552819771292 
3.0002575354150647 3.7455669444627535 0.6975789197273258 
2.0092318822099164 1.3290490058467195 0.694334334763859 
0.25892764507554167 4.657469053263478 0.0974596525385244 
3.253495658296222 4.0965125305483685 0.5269474694072858 
5.007809159868255 3.3717136130698333 0.8496930384538343 
3.7595587488712225 0.1628442633100902 0.11200067977890842 
2.7557345961627266 4.993319115556728 0.05036753112665335 
3.0084936335745143 1.493826886941118 0.7635566293021011 
2.0087944294296407 4.088432130289955 0.5318989157742529 
4.002164670329913 4.990088995437977 0.05582282476056762 
0.001933181404587161 3.869176622387156 0.061249699589304686 
4.256755477487672 1.709236272117791 0.8653266528891302 
4.7432742299788 1.3320415984663183 0.6971643917258001 
0.24984743026822678 4.333439115623001 0.10142957618436943 
3.5095229249943554 3.9382200592479393 0.6173928203104536 
5.996708667783645 0.5501480692989926 0.18385401865614007 
1.5097452394574515 1.8782880186874302 0.9361006549211875 
4.514147816392965 2.192847157533552 1.0818353110297714 
6.241715378660331 2.746715039372571 0.059075019222346425 
2.2552332392365595 3.8326306752981103 0.6565804915435349 
0.7623466493211289 3.1309352072581382 0.3413387750673482 
1.510610648666286 4.1315506368626025 0.5260415910384022 
6.00433720722322 2.576761566270863 0.17561261008544551 
3.4988982469559184 3.872812390589177 0.6440503302204897 
0.24691474468961994 0.7668881693229553 0.09285050733607933 
3.7539914634167255 1.489469848464744 0.7715883972506276 
3.2521568364247706 1.1155155589445624 0.5971067444746662 
3.7588332597225413 3.9565810667395334 0.6049406879324213 
4.758991498033274 4.259680259584421 0.46214325377089155 
0.4985975516806179 1.2648247942077133 0.23398083703225958 
2.257013765857785 3.992270867341845 0.5797441866906141 
2.5043951115865957 2.0295262568034804 1.0129236589555761 
2.247680705959481 1.1856291237023213 0.6220242222852638 
5.5017383761187 4.3387624455973715 0.39517942593457606 
5.517172386937569 3.827719025275917 0.445607299413926 
1.0003162886139163 4.851889835531208 0.14797796735034646 
1.744957984623038 3.5475311366714157 0.79201005261238 
4.256410618794689 3.3391941816232444 0.887053980216229 
2.0086837623565574 4.870468228523468 0.13281033808204243 
5.500749039855049 4.38900745701449 0.40415154536048375 
1.2614924575924018 0.38134483387285795 0.22509209107374414 
0.25761201597365047 3.0188292908788927 0.10221366864287833 
5.002769413031766 4.821013352874279 0.1599438710338231 
3.497657720389734 2.268124085396864 1.1268337332239666 
4.497903277527273 4.165315593348915 0.49661494343712176 
3.250709200458422 2.262017944340224 1.1146645309302516 
5.248275352608744 4.8363625757806465 0.15257767866120067 
1.5104701709680688 4.696166355393057 0.23812388396523873 
3.2591040257714057 3.73580285372146 0.7039201188028313 
3.7645546901170097 3.7316194501167175 0.7001588012199834 
4.008788671298956 3.355191344241827 0.8817361365702968 
4.249336820927201 0.7799081367382067 0.4593062107190979 
2.0156237311259355 4.67004580569233 0.2513396136338952 
1.006302171126056 1.864116297809348 0.4692268839383832 
1.5107275110642675 4.675209950816383 0.24342383074440443 
2.5017457334009956 0.23081068146296654 0.12917888162540386 
2.2556994070547542 0.7347250843191632 0.42069948092273934 
1.7551983080415354 2.7832047013332915 1.1351624067810295 
1.7430460584003298 1.3017077867215165 0.685878916993624 
4.510322886559645 4.748347581138621 0.19934164256891707 
5.249656275564323 4.806373277212568 0.16127001075958267 
3.2582471058790548 4.704592377802714 0.2227481108712288 
0.7551548406551424 2.809477354072939 0.341539632807382 
6.25228942810265 1.7656785296704949 0.064294074024416 
2.2511401788834267 3.689576747982595 0.7172684835823044 
3.997905545090812 1.9753565700225273 0.987127003743531 
0.5072433075723396 4.9799817183767345 0.0838198842785982 
2.252146043766235 1.771067807152886 0.8973133798095537 
2.7554709998404987 1.802296617684568 0.9137425608216246 
1.753218323668127 2.384766946590882 1.1573738587248241 
3.7613276560381887 1.4139250019124372 0.740950928506358 
2.0018644433553177 3.5535558070635993 0.7895281229160893 
4.255081817672454 2.2901646325992777 1.1329584312496983 
1.7539584103363293 1.7132081168356905 0.8773057944990591 
0.7567789494430722 0.1831332248534134 0.11264562803414163 
3.250709200458422 2.262017944340224 1.1146645309302516 
0.24890223281039517 3.422127660578323 0.09999270049099983 
3.506312237463743 4.924534663531681 0.08944409582309444 
0.749910325298118 4.732932836000898 0.21439506802159167 
5.75028179635315 3.947347086439517 0.30657408196375296 
2.2573949349748514 1.0397785492295086 0.5698161287207787 
1.2562379711296126 3.293848896754028 0.6724924161050202 
4.504922682147087 0.941187515987765 0.5162114015617975 
6.001442631631989 2.0854127980602177 0.18255679545828493 
3.00723604697326 1.3770071466224127 0.7170333886061022 
3.2582471058790548 4.704592377802714 0.2227481108712288 
5.506212134654557 4.524393532951414 0.3357124762052739 
6.005392415569309 4.339133221112532 0.18416624274664453 
3.2494515152920873 4.047718290979256 0.5694688240218664 
0.5096134125777935 3.7337910824756317 0.22716921079877753 
4.501545296670237 0.9737691507340349 0.5200872675667159 
1.2535324390585008 3.3619934077295963 0.6854810492231846 
2.7529496964882263 2.6003635459456396 1.268713154784308 
3.003321511854255 2.142200959445955 1.070166716735433 
5.255666633305099 4.050314314561945 0.557852454501296 
2.7557345961627266 4.993319115556728 0.05036753112665335 
0.2545708450614207 4.737102490163811 0.10571165537954594 
0.25892764507554167 4.657469053263478 0.0974596525385244 
4.501240395997414 1.2729124241877536 0.6773457723292389 
5.4962870276424844 3.9555363175284923 0.4546312245676919 
3.7510373742746013 1.7872323672925172 0.8918984708862764 
2.006838878366466 4.982119942760412 0.06740668266645257 
6.006535923973729 1.0244691066556622 0.17102321160976452 
3.2407318961065954 4.836797049886534 0.15373966177917206 
4.505813488276066 1.7571675274655025 0.8892340531834874 
6.259431213818392 1.836995721896787 0.05145571515672974 
0.0006327599805511673 4.977228315977519 0.06198739812689327 
6.263399224296844 3.9360983217703063 0.05116142149248488 
-0.0017184849484059971 0.2687828290635228 0.05834333127985183 
5.758657815326829 3.4351697221686215 0.29596876923631826 
6.258471206733007 4.9940190217673015 0.03986883619297146 
0.7510099600667249 4.123304361579472 0.331833023304003 
2.496291643773463 1.7395922208769177 0.8859031481744157 
0.7417734270639096 4.363072478637004 0.34304067307448516 
4.005237638260393 3.432592472975237 0.8482292617977519 
0.2477496843774123 5.024922560159221 0.043244292488113116 
5.507137126685269 4.809572244848299 0.16373509970962868 
1.7524573930859726 4.74639521741641 0.2046023230907451 
4.007306501309031 3.381369744461196 0.870298468949664 
5.248275352608744 4.8363625757806465 0.15257767866120067 
2.2523718039379905 3.2892282584588877 0.8997325014359128 
3.5049306555142152 3.6412895950513398 0.7547865320955155 
2.0008057794458045 4.70361289163561 0.2288513913013906 
3.764272227950417 1.840646821797084 0.9250056192489235 
5.747167033411919 0.13978287430821182 0.08617690622827853 
0.7458182859335843 1.0277810475142282 0.3325257495166755 
5.755197388691251 3.127518503805306 0.29543695440360357 
6.006848233321861 1.513368763755996 0.17311637736512553 
6.006848233321861 1.513368763755996 0.17311637736512553 
2.763341568511513 4.840392740212485 0.14263684231857235 
-0.0007049051637677587 4.499154674870425 0.06953576600998324 
1.4981448486979736 4.345971314170291 0.42852769618840425 
1.7559633485434252 3.177069003235552 0.9614194987803757 
1.501504527128105 2.375919082366419 0.9074896740639701 
6.25465870735156 2.0367769485690093 0.06635462077413838 
0.5054158277529871 3.715535946407061 0.22287497001878628 
2.761601225552831 4.635960711611359 0.270239229433784 
0.5115750160658206 4.602409711574266 0.213662255908101 
0.7623466493211289 3.1309352072581382 0.3413387750673482 
6.00160090522504 3.5581615013795247 0.18242115312645937 
6.003828959723313 0.18879121343861283 0.11940612910823749 
1.510643601202314 4.352608238996547 0.42449233779990075 
0.5021921373712472 3.5246181293996326 0.20968265577076486 
6.001940138281299 2.737323229377592 0.17589841133325237 
5.25106026654664 3.0575293687179617 0.6061990236279255 
5.020953297699243 3.858897555244775 0.6517079289284322 
4.5029542919970424 3.509404615289448 0.8105452340395843 
5.507110953739803 4.2135958617767235 0.43786483280996813 
2.9997232490432677 0.20538809072666753 0.11088431210952358 
4.249336820927201 0.7799081367382067 0.4593062107190979 
5.754182893016652 3.114011534966787 0.3021979508936895 
0.01010764434437713 2.1266196009433367 0.05773276853221815 
0.9968254088470291 0.2088850750881231 0.12502298385459176 
0.24717153688658622 4.666306102115279 0.10089057653223564 
2.5038336701139716 0.009814199141204627 0.07660861311586116 
0.25689008746868786 2.475380195115887 0.10429892842835972 
2.4882819996816727 0.6475542773592159 0.38738569370765963 
5.005105370255741 4.596732230060337 0.29013454889852136 
1.0019258205332737 4.338482315655718 0.4237931955100593 
5.25103853240407 4.391771102205114 0.41131198960299253 
5.26633933071451 4.948530966045252 0.07430032901277658 
3.995206725023738 1.0159817380989586 0.5506714433411094 
4.749459950266781 1.0969862446863414 0.5795056318059097 
6.007617084328148 2.1992271466306077 0.1876577234116016 
0.5115750160658206 4.602409711574266 0.213662255908101 
2.996331044435607 0.38040562638826075 0.23292468275345546 
2.002097726222488 3.0166884250820964 1.0212696612212622 
0.49144032063395326 1.5640541547643967 0.23473352479147966 
-0.0007049051637677587 4.499154674870425 0.06953576600998324 
1.5042958749862412 1.047915745987759 0.5605571893442267 
6.001852369066814 0.546537374696646 0.18158812024309562 
5.5110450078648965 3.125398040645449 0.4468746852059996 
1.0003162886139163 4.851889835531208 0.14797796735034646 
3.7538473965174384 2.2629259744896655 1.1116600010407913 
3.4983056518060223 1.6438458027902498 0.8266692601453896 
4.754617098594677 1.9333138104118015 0.9600344412195709 
1.2483688611918573 1.120888346424373 0.5993307472734571 
4.0024206660544435 2.470782133019733 1.267241007946863 
3.744326396547716 3.7750114724174293 0.685781244205025 
1.012544545792794 2.568464730373053 0.4659284318682593 
3.9971587864189035 1.9660287548947843 0.9817183390864166 
1.5035455352212173 0.04390148360972516 0.025339440222944473 
3.2463952112045082 0.34231445991911047 0.1995005110426319 
