6.503231530470657 -0.5533682419294452 0.8458961405248728 
6.507516269021243 0.7302120110719394 0.8495352155295827 
2.253400305300161 1.0014098493211365 0.9136617599717982 
6.753831230351605 -0.4015193638718008 0.5896169450561992 
5.2523218295083405 -1.36228676210055 0.8046729397478373 
6.505355491702659 -0.2946951514639367 0.8519060215454969 
3.013438711220491 0.4590396478025318 0.3887631596990294 
3.2491578717396172 1.9390072206833708 1.139684802136077 
6.759221915406851 0.8799559822333756 0.5779361641326318 
4.761817008283728 0.6989313748308247 0.6372076121539126 
3.000882524937009 0.502904433211198 0.4309073773701216 
5.502395983354847 -1.754164595461635 1.0917115848356274 
1.0058309391005724 2.326379915265855 0.779191154001983 
6.748318518312986 -0.835743783335687 0.5971803854410583 
4.001911023358116 1.1796281194984293 1.086008818740767 
0.7508005332461052 0.9918019937263006 0.9109945380076208 
1.003844455557157 2.4108833702206267 0.7048474127360899 
6.499975356639955 2.390080511675924 0.7224518679253932 
1.2509223840001082 0.0029013428165078747 0.032371929639728014 
7.000913899343986 -1.0825108581704517 0.32755528029729425 
7.259447615816066 0.11599380651153261 0.1314659689830192 
5.757285025020368 0.6061062404102673 1.3249827635549891 
5.001322425698478 2.6836902141340366 0.4350627889594268 
5.752236896407707 -1.6412894145615755 1.3290100061571317 
5.746125810620062 1.8242134706580102 1.2645811218439627 
3.748585918664704 2.8098754698723263 0.3261163893044167 
6.249008980846306 0.28994686136838715 1.115333323430717 
6.005452437051905 0.014822260956076371 1.3691789296573744 
6.751690121078566 1.3375153117931686 0.5986276341390091 
5.7529961943676335 0.26057183224392444 1.3460834805919288 
2.754483201917534 0.49100838745562175 0.43306642764433156 
1.2558083289382256 1.9491638856531521 1.1290501026815982 
5.7529961943676335 0.26057183224392444 1.3460834805919288 
7.000542112903324 1.198737760484274 0.32477783022504353 
0.7563942142609629 1.0561394228279708 0.9640267611317506 
2.006287717953397 3.011725553526764 0.12757371264097891 
7.00696022323166 -0.017249000665159355 0.32756849700807894 
1.0040993439151917 0.8672839110315426 0.780323138015945 
1.7576532466259176 2.2573794237686315 0.8527882511789662 
6.25899046015394 -1.3240090906447775 1.1110732384909594 
4.7502724669522225 1.8293595953915622 1.2595086819356818 
4.2596735888381945 3.112994213851237 0.09615877025924215 
2.265827431862309 2.4630567508276333 0.6482984294693881 
2.0050760006537325 1.1756716931320816 1.0845591747993875 
7.004006095833303 0.6642083708932524 0.33672046654754084 
2.490282392965498 1.0073988422387978 0.9253324495336279 
5.997071979181318 -0.3126583370302686 1.365497524457925 
4.004129991340296 0.03009337697519683 0.07345913402474039 
1.5084165867882289 1.0229149511376154 0.9348071008338102 
1.5035869179361452 1.38783080634684 1.2747353716329441 
5.006397313970559 1.0104877594680188 0.9311042937887396 
4.501118952064472 2.1831446780174693 0.9152575463180851 
6.0067816096305835 2.320046812721681 0.7907960060098136 
4.988563213826244 0.9845836262627561 0.8915022582251314 
5.490735881411442 1.1707908145905115 1.1475815580783222 
0.2442820159006186 0.7118698029513323 0.6435498886162441 
4.7502724669522225 1.8293595953915622 1.2595086819356818 
6.759011110417598 1.6175815325762024 0.5732140017103178 
0.5080708338414834 2.108996575068042 0.9834087783564647 
6.263194347367723 2.8749137841244097 0.25514779103996466 
6.253248059753037 -0.867956225419228 1.0954812069199484 
4.502820988966488 2.6810525426312335 0.4416925319688394 
0.2535654643432192 0.3634139385887387 0.32600049308069934 
2.258351539375689 2.6154245214851977 0.49969459469122884 
2.75405314220265 1.122003293369437 1.0313908895435246 
2.504508739092265 0.5123366837355989 0.4459423007453555 
1.7511434309002996 1.316872229073228 1.2043286421547903 
5.511995886514467 -0.5378523061971134 1.0858059019323036 
5.759930559497065 -0.8104784658094726 1.3435183813497933 
5.502892106642997 2.9363131752469176 0.20295888248726277 
4.738377651396283 0.41347501800742736 0.42916871571364107 
3.9894847707366305 0.6692055771813238 0.5926972507345659 
7.00705056941545 0.6819266138825685 0.3324858216575047 
2.9965897699664445 0.537983065934465 0.4748181168845809 
5.756577588222821 2.8020992925918073 0.3410470990129473 
4.254934856700917 -0.007433600188873877 0.03154025197856386 
1.008822251678391 1.407010598422377 1.302877203814352 
1.0134355946576872 -0.05002986935847963 0.06152505359692328 
3.007829098666929 1.5886209680241543 1.430852731100905 
4.5060374884759336 0.9688797535735798 0.8721682587128711 
5.762522881469625 1.688638493721482 1.4161349407559254 
6.242526645270672 3.0666294878712894 0.09158058502802545 
3.0034524824418796 2.9793605551814792 0.17459328659133236 
0.9966809576533358 0.05968306972815491 0.09311369676818182 
6.994499995546904 3.151258991741644 0.08227940023176968 
3.7538346869321844 0.02918565632595317 0.07113733718854487 
1.24902208742403 3.1196125851255925 0.10048153205927594 
5.2575527582517445 -1.2922686603000315 0.8232443412831788 
6.496796559079906 2.079482308567356 0.8515828776981488 
4.746002592489287 -1.1961082276545447 0.2851981170658147 
1.0040993439151917 0.8672839110315426 0.780323138015945 
2.7472015212041705 1.6464602421935304 1.4348811253594036 
0.49313643187023953 1.5017094079989435 1.4347497361532524 
4.509449197302473 2.5358988157668763 0.5788880122894703 
5.746125810620062 1.8242134706580102 1.2645811218439627 
6.506181738396037 0.2331363633801762 0.8423113367418625 
4.753237281936713 0.8340498142556135 0.7619705356873121 
1.7643306529650944 2.7195171510686844 0.42229672372604765 
6.997139482101238 1.922544198279792 0.3366947683936334 
2.0013047257832364 1.0072743558104595 0.9062554578187307 
3.508722247613402 0.5144030737525301 0.4497281567994961 
3.7329961445452104 0.11632107005954566 0.15024123702700615 
6.749264176241499 -1.4370913860988659 0.6012283268608755 
6.003001669268993 -0.5894264357218125 1.352179661254215 
4.2466578545973475 0.6293962430974238 0.5573780229107802 
6.998239444205221 2.539325388769569 0.3189087406902178 
5.50739555214028 0.7980239159239044 1.0753421206759584 
3.7551257075284705 0.7690140649237888 0.6864422980532916 
0.5065620034089947 -0.06087405849246944 0.05167536295859853 
7.248920233303855 2.568431381766553 0.13672018101660854 
2.2573927902624553 2.974232618817047 0.16213059457555412 
7.25448432419652 0.06666957357672904 0.14918534076083237 
5.25064804878118 1.9859888711314628 1.0989045530999044 
2.5145541435165852 2.4493599105336648 0.6596850314056872 
4.509728010231655 -0.6095442406551794 0.10857482659475981 
1.010784991825955 0.18389778898487397 0.12745520808845598 
1.2456608841057932 -0.021846179043960166 0.028455548882207377 
4.253003875918415 3.06955011570044 0.14945522211991014 
4.0011501480655935 0.03794101725132 0.07608062570267303 
5.003775496119835 -0.18524194494104926 0.554510092303157 
5.501210261408463 2.122061577291917 0.9809521424502234 
2.7497022413319034 -0.032238367875734274 0.08452478438797693 
0.5021158097557806 -0.04815337978204605 0.06142037049560292 
5.751619133063665 3.187240673658223 0.04098912474149082 
5.762532679501151 1.5095230499532344 1.4224954927302647 
6.747825632307059 2.4696089770138996 0.5681477758353657 
5.99702674773888 1.6407366874665634 1.3694628069513857 
4.996326638403173 1.654947273938158 1.434388901361589 
4.251437695176922 0.1992068540397219 0.13444643066188539 
3.993820311089675 2.562121867370452 0.5449103299167015 
4.5060374884759336 0.9688797535735798 0.8721682587128711 
2.257430066055376 0.9611443611769032 0.8665924100573885 
2.002725740924258 0.7804763767036097 0.7000688008465292 
6.990215872670324 -0.4956560648613746 0.32560248591528956 
5.990257258955179 -1.4084771652841241 1.3635872110996439 
1.756595876964362 2.1381952524641847 0.956280679845884 
2.265827431862309 2.4630567508276333 0.6482984294693881 
3.508394630340056 2.7373461050221533 0.3950176429826253 
4.514476003610445 0.21008784185156432 0.16277570238520128 
2.247164444950308 0.5563348139574792 0.49669465489614256 
3.4960870483227087 2.39001632082823 0.7283182468801402 
1.010784991825955 0.18389778898487397 0.12745520808845598 
2.509716250444951 2.2970146619197576 0.8151332079377678 
4.504090195634978 3.1498960129674654 0.09053435012034448 
5.508645189900179 2.375288256335082 0.7299391500365928 
2.75348354212723 1.2956269829231117 1.1934768554287039 
7.244947198142858 -1.3443398442195689 0.14798708470584532 
4.245975539733038 1.5660471718748779 1.4267468820511329 
4.502820988966488 2.6810525426312335 0.4416925319688394 
3.2550234491165284 -0.08398623009245397 0.03311049145772732 
2.0085371606920845 1.7605114139482922 1.319453247338419 
4.26045386528967 1.26098102845978 1.1608779812507934 
5.017699119268312 2.3686051727876873 0.7295465486383004 
5.25395105034796 2.970121673683678 0.18378613048256712 
0.5020012490289285 0.49613311294779633 0.42461923900099363 
4.244538717246695 2.326855165130119 0.7736467437200899 
0.2461044782096534 3.1434322779362494 0.0924352508648462 
5.992927565234049 1.922141263999889 1.1473617626209427 
5.742328252992706 -1.0115322431230613 1.340602540942305 
5.7582052396306596 0.9710588300564502 1.3514071699054437 
4.509728010231655 -0.6095442406551794 0.10857482659475981 
6.5045188607778694 -0.2783622093120093 0.8532378726759986 
5.511018509808001 1.6586827830643978 1.4330684383743162 
2.999790083122319 1.4279692524184069 1.3125778082815782 
7.2518516821621635 0.6484658319591159 0.13389710374104596 
5.4984652691911045 -0.2684901339914686 1.0730632075392972 
2.0136598263140706 0.053209964401780434 0.07898182547306203 
2.265827431862309 2.4630567508276333 0.6482984294693881 
3.257422727299015 1.5753089013814072 1.4346898707007685 
5.504409694335512 1.9114868020623166 1.1849056289308861 
4.247013445634511 2.150872336401161 0.9441931995501385 
1.5007920756698625 1.5321008051864946 1.4363490353590862 
5.498841441827536 0.19487912722621026 1.0750659173714128 
1.5001149832315814 0.24117776040611302 0.19036742089766087 
5.7434465728258735 2.339386545514676 0.769535163442287 
6.250975259636034 -0.05353612423525079 1.0999447474808137 
4.504662063361434 -1.5501204235000456 0.10735369635129831 
7.002260374914811 1.9440703606325143 0.3299245199282261 
5.002135969997652 -0.9343288628026345 0.5450869188947758 
0.7523325866873432 0.24033787935583553 0.17467577484087593 
6.25040196544379 0.839533157556614 1.1181982582796817 
5.25588870891968 3.1081287012787615 0.1256814340530497 
6.747215853679696 -0.8380782420890336 0.5910788456436776 
0.5080708338414834 2.108996575068042 0.9834087783564647 
0.9983274422123216 0.6837684113842841 0.6178732581358692 
2.2514281084935908 1.656997765320764 1.4381909290061612 
6.754457087167148 1.3458291444203017 0.5921701537008052 
1.7571795611296332 1.189758569019685 1.0931621533850622 
2.4986770386734403 1.3964959601225506 1.2889502124007612 
6.000189382866157 -1.284160446894203 1.357222116113091 
6.012632553715406 -1.8122310028491775 1.366689757578913 
0.7530853594017918 1.3745126159668077 1.2689792825578103 
6.7664614910668455 -1.2818902211791428 0.5743489355135561 
1.4976068328591314 1.469769922632962 1.357787337032526 
2.999040744684228 1.1668274995814258 1.064904685940289 
6.505795584212884 -0.027910504073287556 0.8515838757868209 
7.254547260284124 1.3520322357851977 0.13433188633269866 
4.001911023358116 1.1796281194984293 1.086008818740767 
6.997258743775328 2.0143952443769484 0.3268295701619141 
0.7546678397862522 0.26658091604851314 0.21479419909833297 
2.999790083122319 1.4279692524184069 1.3125778082815782 
1.756599050222521 2.387620352776445 0.7182048643752085 
1.7503100040715314 2.5578790460208096 0.553803453699839 
5.250236589493014 0.12955988765437756 0.8269967335369122 
5.759930559497065 -0.8104784658094726 1.3435183813497933 
5.497946664404036 -1.043859385531852 1.0761174549130168 
4.014578237401802 1.0951339984612576 1.0033846974447478 
3.0105611199026825 2.642365993468584 0.47864246747145983 
4.7624268104877014 0.8514162715923793 0.7677609820249904 
0.5049516922520969 2.4212103584056672 0.6930605201931469 
6.5080109843860185 0.21367097905925345 0.8595937992370024 
0.010371834057171741 2.5983801939863116 0.5340967993003533 
0.2579879238748105 2.185813187814175 0.9117114752980143 
0.5006428745079541 1.2675645704380636 1.1610483582919426 
5.750117843927891 0.13404567320666935 1.343523164949794 
1.7587190430409347 0.7043328518546401 0.6330838183352884 
5.2650195357493565 1.8073277106137027 1.2610501443283701 
4.006147954302216 2.622059190898227 0.5030536613990534 
6.5150509713143245 3.0927952602283457 0.13183974068306717 
2.0051184987532777 0.20180445423908794 0.15996165034125487 
5.502024530916681 3.065069834599407 0.07955805506454015 
6.247620340594383 -1.50819396178205 1.120632663979936 
5.000320357507516 -1.156950610871125 0.5458467407726184 
7.00391457883477 -1.4307881422155515 0.33062916359206806 
3.012498118299328 0.26066700672968834 0.2060271995777451 
6.745722995352065 -1.7014239062557375 0.5965978319590803 
7.0061385466674135 2.5880637037667946 0.3187826863731472 
0.5065620034089947 -0.06087405849246944 0.05167536295859853 
0.5093781849573747 3.027708000590769 0.14196889015606795 
4.501480585304898 3.097933018480357 0.1172119895528666 
3.0106182888437854 1.7508247046589231 1.3226628296117187 
3.2568533346569506 0.6985141410751027 0.626577368457557 
0.502554285980829 1.1798222674480616 1.0813282653815315 
2.7554055953281384 1.3056584030545297 1.2041549619517868 
5.254429994775323 -0.7381671927614701 0.8108810919190526 
5.499446454193218 1.7948736672888739 1.2763701654119897 
2.0086248966877185 3.028611188073709 0.11325259422680746 
6.258893005099315 2.307060111444491 0.8083305991289242 
6.239126463990126 1.7398402989806536 1.1162447578505057 
4.997154406862296 0.31203576708929764 0.5423781461210703 
7.255724185026227 -0.5244086689893305 0.13814307979040572 
5.4991429752066265 2.46276848533154 0.6607476282804063 
1.0134355946576872 -0.05002986935847963 0.06152505359692328 
5.758161007150771 -1.3203857664050196 1.3381246202821198 
5.7404691389388915 0.3383837905608558 1.319358487547896 
4.758071352810852 1.7979543891251126 1.2747639794358578 
1.253580020706406 2.897467821751322 0.22644209231677315 
6.506181738396037 0.2331363633801762 0.8423113367418625 
2.2514281084935908 1.656997765320764 1.4381909290061612 
6.496796559079906 2.079482308567356 0.8515828776981488 
3.999442608585094 1.0241423443581357 0.9332726659413361 
1.254898419920966 2.6258591679553565 0.5009541941141903 
1.7453237601334162 1.1429352128845065 1.0453322465891912 
6.010193210708683 1.1975296693159165 1.358423476700947 
7.00391457883477 -1.4307881422155515 0.33062916359206806 
6.5045188607778694 -0.2783622093120093 0.8532378726759986 
7.00391457883477 -1.4307881422155515 0.33062916359206806 
1.0037123581242808 1.8314985244623725 1.251094885274547 
4.503336887494617 2.6763477767736816 0.44967948664391766 
6.263481842225182 2.006925449196363 1.1185759638724158 
6.999880163743331 0.9086346726857296 0.3297322129234751 
5.001322425698478 2.6836902141340366 0.4350627889594268 
1.4954340711153624 1.2907313908946385 1.1934933388527076 
5.499446454193218 1.7948736672888739 1.2763701654119897 
4.481675479923842 -0.24625821940091766 0.09756573568117187 
7.008872348551458 -0.4120823358023572 0.3189403942823272 
4.500846024354964 -0.875153979662071 0.10681083702879966 
6.24059837409434 -1.1020781931672687 1.1059224661473082 
2.5063797097025446 2.669721838748958 0.4609556265650398 
3.746911708278633 1.7869831747220026 1.2937769401312165 
3.9983232478476682 1.13890691135826 1.0329137982636922 
6.258074221125625 1.0526592599302456 1.1039888574041745 
1.0029028411018075 0.38844400097012205 0.3322531333330659 
0.2461044782096534 3.1434322779362494 0.0924352508648462 
2.4981180398394 -0.11099650286696061 0.014821949832683458 
5.4991429752066265 2.46276848533154 0.6607476282804063 
1.7503100040715314 2.5578790460208096 0.553803453699839 
1.7514757815613626 2.7387761591074584 0.39866609021312 
5.509658382887945 1.4451370292358139 1.3248015023299986 
7.002850393915557 -1.3843201707514075 0.3295332849386652 
4.998783516471875 1.2876912475681233 1.195442394087109 
3.7512970656583273 1.5672500374781075 1.4312259443140953 
1.0047654058506528 2.333086170308808 0.7773657345723838 
6.998277987491867 1.8217203870577527 0.3166072978913714 
4.5059588280055785 2.0270311728431025 1.0668917025253697 
6.998277987491867 1.8217203870577527 0.3166072978913714 
0.7531336184397741 1.9552901426461942 1.1288896141688949 
5.001322425698478 2.6836902141340366 0.4350627889594268 
4.5020830099341085 1.0743373979344082 0.978220245161202 
4.738377651396283 0.41347501800742736 0.42916871571364107 
0.74284918840775 1.3478903611455222 1.2383070577234252 
6.998277987491867 1.8217203870577527 0.3166072978913714 
5.259216847581046 2.6293873055481223 0.4999670550416948 
6.506303835705782 -1.0671733943324837 0.8568408481810923 
1.2576622318723336 2.9948024717279185 0.15250760548741296 
3.508394630340056 2.7373461050221533 0.3950176429826253 
0.5065117003375601 2.5508405845069233 0.5686042559894439 
0.7523950340106659 0.9549462970732154 0.8761145684394974 
2.2467272171989556 1.807770564603586 1.2703519362841493 
4.74859786710438 0.1212614168877311 0.2846820474009165 
0.001903991857298822 1.6433754432132628 1.4358093898897701 
-0.004099182325454007 0.3385957177962128 0.28646881256115464 
5.000320357507516 -1.156950610871125 0.5458467407726184 
2.9932477081243123 0.8782320850933741 0.7970748861484208 
6.501163476592766 1.405647953162209 0.8441008975990362 
6.994499995546904 3.151258991741644 0.08227940023176968 
5.758458495162214 1.0188983718137263 1.3399534076220785 
1.4902164320340816 0.26898454649952247 0.22304161642810713 
5.494867721675731 0.4956379924804005 1.0767199144346666 
5.5035072896017825 -0.2497987409042139 1.0752812881422946 
-0.0011824381673982002 1.698841842280331 1.4335034918345382 
2.00552853405461 0.7282483797721568 0.6636478015603731 
5.498841441827536 0.19487912722621026 1.0750659173714128 
7.255724185026227 -0.5244086689893305 0.13814307979040572 
0.7503793928715565 2.123557023638875 0.9848971634521037 
5.505952673655785 1.2065842730381073 1.1801365306293428 
0.5065620034089947 -0.06087405849246944 0.05167536295859853 
7.252539163682448 0.44379122966260637 0.13584093039275133 
7.0061385466674135 2.5880637037667946 0.3187826863731472 
1.756429667839587 0.25075796854440924 0.1996281093574106 
1.5095583645274446 2.440856040902194 0.6665967357760393 
7.002796237496218 1.3167882984435766 0.33091303381020654 
5.745255834157094 -1.2602576495984341 1.3360629851628474 
1.254898419920966 2.6258591679553565 0.5009541941141903 
5.008799332874781 0.801961531208973 0.7354127878436455 
7.255308067327504 1.6849245617506612 0.1322244366040619 
0.7525402713004781 0.18526927503757373 0.13753470910384064 
6.51193091987297 -1.5510205506135897 0.8433755272053794 
6.008592531025185 2.11095561903177 0.9888389090597041 
7.0177260016226475 0.16500925989437198 0.3146541377027501 
3.2588108296473686 1.8732448853630692 1.2183381284848533 
5.509658382887945 1.4451370292358139 1.3248015023299986 
5.995984182904052 -1.680824937302101 1.3557711501233238 
0.2437544683695682 3.153514018294356 0.08086679962520983 
5.501203837942127 2.794658118774568 0.32972352799068577 
5.249177173283682 1.6242119137264626 1.4276455760175009 
1.7492709844605256 2.1850338503658846 0.9357001546760043 
4.998750002316832 2.474506851199019 0.63138385473498 
1.0058309391005724 2.326379915265855 0.779191154001983 
6.2633068120649575 1.5784992263735138 1.1030521612950195 
4.002195064858648 0.022997055850228793 0.05431084683201596 
5.511995886514467 -0.5378523061971134 1.0858059019323036 
5.005944741225801 -1.1822023685281948 0.54074188931693 
5.252209487411358 0.9522641568168737 0.9431445493604443 
0.7563942142609629 1.0561394228279708 0.9640267611317506 
6.5150509713143245 3.0927952602283457 0.13183974068306717 
4.255050888283059 2.305051673371793 0.798038689190651 
5.996101802135345 -0.11261104012044869 1.3686358592456436 
0.5049516922520969 2.4212103584056672 0.6930605201931469 
5.751374079697284 -1.8205320396763869 1.3381343909762191 
3.9934793625938285 2.3571864571277885 0.7582368890474733 
3.0033948171573934 0.8979498745596991 0.819365847901136 
5.0084959485348195 -0.9596347598101473 0.5483332599359917 
0.5036688378014144 2.197235087296989 0.9123176507414004 
5.499784579898442 -0.5034922012905516 1.075818950504056 
4.240680880907656 0.17498962638017448 0.1299375300452033 
5.747165790812641 -0.8628430191761074 1.3411107471948782 
2.999040744684228 1.1668274995814258 1.064904685940289 
2.4857242891318987 2.5330246448974827 0.5798903390066497 
6.250975259636034 -0.05353612423525079 1.0999447474808137 
0.7670138638965129 0.5847418111082271 0.515356180513375 
1.7516055595416697 -0.010828787092580294 0.02632033169465875 
6.508591277556609 0.5519148006805743 0.845328996096168 
2.2560605309327384 1.736438665298081 1.339223443810932 
7.259447615816066 0.11599380651153261 0.1314659689830192 
3.2511463344548774 2.071534413555811 1.0265228895146965 
2.006287717953397 3.011725553526764 0.12757371264097891 
4.750871578794363 1.5213227406362149 1.4258729875565737 
6.997258743775328 2.0143952443769484 0.3268295701619141 
6.747215853679696 -0.8380782420890336 0.5910788456436776 
7.2591795769336755 3.1358929324205422 0.0644334073323025 
3.0028111025867568 0.6328318693277136 0.5625815723202684 
2.25715603379912 0.4805002582145692 0.4224324672249447 
4.997246289842219 1.8618316527113838 1.2086143499532152 
3.000009692536515 2.5867558767012198 0.5318163898270254 
5.747314289776034 -0.27892646415791333 1.336172433262423 
6.000382750539085 1.97247526603477 1.1193564746095988 
5.008265370046379 -0.7069242517004917 0.541107376004178 
7.258025756949921 2.672770950520715 0.12906980490318345 
6.762835645693525 2.168986244617323 0.5872642293543118 
6.996110824031742 -0.41398830659492636 0.3415880978422694 
2.7406166281958795 1.8215413059501333 1.2631044615250004 
0.5006868332433383 0.04483270714637869 0.08525383773162798 
1.5108822307695087 0.9625658508726448 0.8820023363515532 
6.511874921860218 0.1683721773898303 0.8446086394433816 
5.767577743406542 1.9680737604123772 1.125649907469091 
5.751619133063665 3.187240673658223 0.04098912474149082 
4.507650671663099 2.3786703472608277 0.7325747303366276 
4.00168000219048 2.0067018934367504 1.0889605247089982 
4.99917525929877 2.9015873220119404 0.2282238114269191 
3.503105690669267 1.4612763420374946 1.3616045351370176 
3.000350245743192 1.7264897615774553 1.3565238392619858 
5.74170790903057 2.3323068517711962 0.7770290002480565 
0.736113402760167 0.8667182105927684 0.79675012757441 
5.495517282876984 2.0460608849663733 1.0431573793985212 
4.2458289908477616 -0.04290119249688846 0.06532545958072948 
4.500616319733633 -0.45194290637610707 0.09140460799489425 
6.747039668242419 -0.6946017875892612 0.6041628934738082 
6.003001669268993 -0.5894264357218125 1.352179661254215 
6.252682906637005 -0.22663412398771515 1.1086138182716185 
7.008941969069174 0.7256698517448422 0.33184499353989855 
5.251378099976732 0.8055253646127536 0.8108501328022512 
6.759221915406851 0.8799559822333756 0.5779361641326318 
1.0009226612988034 2.35694618527657 0.7451996250989311 
0.2491194443655552 0.07790535971046281 0.10156528350669547 
2.4953348098468893 0.30979669252077147 0.2617884941546366 
2.750754600587333 1.2309835099668893 1.1357381256804022 
4.251393772782416 2.732048252030359 0.3919795076824956 
7.257123332552922 3.1739536834209376 0.030355719216972357 
5.7658993688610884 3.1593333373482997 0.0748459019414524 
1.4984648639175717 0.34769364769680694 0.2817069936984138 
6.248463303006526 2.3224939382747327 0.7810031040902007 
5.251657746361891 0.4937875228375762 0.8137013779592902 
4.509108184400607 0.24094932556375653 0.18756538431770187 
3.4945824474279705 1.9746214533701534 1.111322863177843 
5.988323565802462 0.27234566113687975 1.362595526818416 
7.009955038323607 1.4536450712487579 0.32685014073217034 
5.005944741225801 -1.1822023685281948 0.54074188931693 
1.9953546773486923 3.0886900843964407 0.12584419064338706 
4.9922373305204095 0.1855834915142715 0.5466773570473672 
6.253751398466592 -1.2134962356687884 1.1169892113853246 
6.239126463990126 1.7398402989806536 1.1162447578505057 
4.75476797784504 -1.4918750503010374 0.2880107327415519 
5.003222487219493 1.1939207513289702 1.0904378552293854 
6.998277987491867 1.8217203870577527 0.3166072978913714 
0.50823745766088 1.3372456350142696 1.239635958025371 
0.006801220245402433 2.1589551057660676 0.9438926303031792 
5.509606083501526 -0.7421983793639922 1.0777243050133793 
4.2596735888381945 3.112994213851237 0.09615877025924215 
2.9932477081243123 0.8782320850933741 0.7970748861484208 
3.4937838707517317 2.9013849020867704 0.2464128726224053 
6.751690121078566 1.3375153117931686 0.5986276341390091 
2.7554055953281384 1.3056584030545297 1.2041549619517868 
4.258922140193549 0.8258482424091579 0.741288057991695 
0.2437544683695682 3.153514018294356 0.08086679962520983 
5.001322425698478 2.6836902141340366 0.4350627889594268 
4.010983614220599 0.450098954298661 0.38423170740230483 
6.260281695712563 0.12265454517466959 1.1182130815432647 
6.7511888760659104 1.1505032091447684 0.5834697915469144 
4.7461687124807455 1.0069304776624248 0.9217357815772371 
5.7432130730291195 0.718025677209342 1.3163309531509988 
3.491264315549382 2.662211530044587 0.46761199459794744 
6.519225514292051 2.708646436495999 0.4182465658707689 
6.503792880661801 1.7884078906847234 0.8545972219242278 
6.759998891940052 0.5683719341686412 0.580761138240911 
6.7511888760659104 1.1505032091447684 0.5834697915469144 
6.266662808685157 2.7302804302866557 0.39892370023440166 
1.503701878344378 0.9630778257464785 0.874280021626173 
3.2567325435788796 2.053427916531265 1.0400583975105266 
7.250329186881155 1.2568738623397533 0.13851279405462208 
4.509728010231655 -0.6095442406551794 0.10857482659475981 
1.008822251678391 1.407010598422377 1.302877203814352 
3.5060088821733073 1.290390527417041 1.1921863522278615 
0.5057408230783176 1.944691214073253 1.1430275714510942 
4.748577880135002 -0.6885377217305753 0.2976988240237572 
5.498841441827536 0.19487912722621026 1.0750659173714128 
5.997364733379811 1.3429302057427477 1.3628317075646883 
1.2494754947722955 0.9701305756990145 0.8916674814494493 
6.506181738396037 0.2331363633801762 0.8423113367418625 
2.255267148751609 1.298427650394823 1.185728317846855 
3.5094455558504256 1.4003955971013522 1.2938345157890188 
5.0034308395652065 1.8029560558231608 1.271842408556203 
2.261381002306998 0.48598798941916926 0.4366572920273215 
2.253764628870715 2.921946995278632 0.21761045112100158 
4.993465819365322 -0.49581791869103997 0.5448869579118407 
7.254879672636175 3.01652882323868 0.03643786758513553 
4.00767286208785 0.9490199224777266 0.8639714210232039 
2.237374562833498 2.643570655431096 0.4750554494959625 
7.249491377899076 0.30623810520785133 0.14220701386806794 
3.2654210340721486 3.1933660227500797 0.038526289143754264 
0.7580385073160247 0.957378691293903 0.8704831895183548 
0.24304857598509585 0.866136110559726 0.7782132821678347 
0.502554285980829 1.1798222674480616 1.0813282653815315 
0.25541272516955227 -0.03087683097312078 0.08211367237317747 
5.50523341170713 1.41888155898656 1.3055507152901489 
6.247620340594383 -1.50819396178205 1.120632663979936 
2.758577634552049 1.391537140824861 1.2743312833176519 
5.994539097197189 2.0103694856947163 1.0893314830232457 
3.5060088821733073 1.290390527417041 1.1921863522278615 
5.262198666085548 1.1523432583873425 1.0540859685804576 
3.5031349341277114 1.1127599603957992 1.0295324092452371 
2.2529532728349673 0.41918021989327037 0.36944468796755836 
1.2646679637925005 1.71700162681404 1.3654777151603823 
2.7590395790786433 1.4543621568934335 1.331939744849967 
5.262999412967431 2.1067963480521836 1.0013499784860451 
3.0028111025867568 0.6328318693277136 0.5625815723202684 
3.762217456609522 2.101146801261274 0.9951055363484586 
4.749507154098445 -1.3666707035156167 0.2818472848281236 
2.509791335205604 1.175751458452546 1.0797083074313352 
7.247305437347508 -0.7441187216358335 0.14037787843268945 
4.753975740353437 1.4819496107315082 1.4290692543751153 
6.49683563280191 1.9960646147347734 0.8572038537637472 
5.0042552922174455 1.8236419486556705 1.237134530100679 
5.763229983427129 2.000153346264333 1.0853747109970786 
4.749507154098445 -1.3666707035156167 0.2818472848281236 
6.5075204476156365 2.378235341056606 0.7230368348823344 
5.767577743406542 1.9680737604123772 1.125649907469091 
5.73936575102497 0.4572753268208443 1.3405164545738704 
4.512147644423571 2.3139281125737794 0.7824156841212235 
1.4902164320340816 0.26898454649952247 0.22304161642810713 
4.753604278034829 1.8772086369232357 1.2122826113867433 
2.9990618637956454 2.1529564085223565 0.945309488365223 
0.503880054755842 2.9803283332709016 0.16450610185201975 
5.253253401042058 0.8857282570636031 0.8994801934769204 
0.24792117989285586 1.0281100569171102 0.9481573786756462 
6.747511943639705 -0.2634853957360953 0.5857244566610632 
1.995350665057753 2.493200527787962 0.6226417491730206 
6.008382110575872 -1.197886040471286 1.3582951978182003 
4.502964030525139 -0.0951068849067359 0.08295470028962482 
1.7552830393247665 0.459786282373462 0.4048434229841583 
1.4976068328591314 1.469769922632962 1.357787337032526 
5.496369905190646 1.0519951147707867 1.0711235399438264 
5.253549661729482 3.061308568937497 0.07154655625664001 
2.998759864957326 2.6640136209225305 0.46192579424526636 
3.9916514775109695 0.15190662381835998 0.11215637758259404 
3.2491578717396172 1.9390072206833708 1.139684802136077 
6.006904994538359 1.9972642095172861 1.1052280767834992 
7.242747656165408 -0.5909224534846029 0.13557532615122025 
6.004151983945143 -1.6726632922030151 1.3639856523613436 
5.507067597642259 0.10308385937409482 1.0676184481539615 
5.755246496898125 -0.35164918647270427 1.3383381726013688 
3.4973253610786617 1.2767197440457854 1.176478572391179 
2.501178428833604 0.5620111968298053 0.5018091473986719 
5.264651743760933 -1.1637124562542343 0.8257153989131084 
3.5044150065063353 2.216729279620354 0.8711967529955518 
3.748585918664704 2.8098754698723263 0.3261163893044167 
0.7503793928715565 2.123557023638875 0.9848971634521037 
4.5049445866546245 -0.8582404726911188 0.08801291948698395 
1.7553497079434872 2.4908441089825173 0.6247344932819863 
3.2529058254840404 2.5696300678421844 0.5436530177926115 
0.77070792360341 1.0414638971159356 0.954296876226789 
5.7644598261091025 -0.19121225041497206 1.3393204202265259 
4.26045386528967 1.26098102845978 1.1608779812507934 
4.7502215612822924 1.4451329121211802 1.352800328351743 
1.757432392950695 2.174886018699554 0.9243118763861227 
2.9948694703787586 1.3778615905354565 1.2708581407635817 
3.00799984111196 0.3257348656776922 0.280146656541652 
6.500818386351117 0.5031282969042873 0.8554022178515154 
2.751908102868892 1.655243324559682 1.4409293884111036 
6.756441465539586 -0.5279288538445006 0.5875530653146859 
3.516561509490158 2.464531611888992 0.6661429399437346 
1.000138718986367 1.0878577491052501 0.9981041234594217 
3.2529058254840404 2.5696300678421844 0.5436530177926115 
3.7412555045770133 2.8066282476929283 0.3306127522180327 
3.9916514775109695 0.15190662381835998 0.11215637758259404 
6.5089198257560446 2.212329234210756 0.8313596863738567 
3.252731313969658 2.5240571055866154 0.6152686452515604 
4.999448426542393 -0.8390586652227265 0.5493868890642017 
5.011492790806878 1.5780449779838437 1.4173391423101038 
5.006397313970559 1.0104877594680188 0.9311042937887396 
0.24164973517614652 3.001999823126537 0.13895071559886843 
2.006082784646773 0.8406014327545362 0.7709104168510912 
1.0084191281701669 2.538293248913572 0.5702593052943254 
4.494965037908754 0.6081517888339352 0.5359453261293253 
3.2526969042688307 2.4374991981146525 0.6762044211787159 
5.501210261408463 2.122061577291917 0.9809521424502234 
6.247196571649807 1.3280601316912073 1.1117979908661029 
6.494964301332581 -1.5190879371468589 0.8477607275360486 
3.0034524824418796 2.9793605551814792 0.17459328659133236 
7.000562356938409 0.8285543804439968 0.33486642992127974 
6.254290035830469 -0.8089044315880111 1.11167202907978 
5.758458495162214 1.0188983718137263 1.3399534076220785 
0.24779719427073305 1.3166595352818153 1.2231963895099514 
1.0009226612988034 2.35694618527657 0.7451996250989311 
4.500453102021932 -0.5091026813166483 0.08772883192927071 
6.497391534182821 0.21501664945830407 0.8499193008034537 
5.762532679501151 1.5095230499532344 1.4224954927302647 
6.994891652059918 -0.7283204458898861 0.3213281471970396 
4.512147644423571 2.3139281125737794 0.7824156841212235 
3.506817397547164 2.1321429168552637 0.9857885905509263 
2.7505349689268637 2.4512929520955367 0.6769973780066882 
5.006098366594119 -1.3812731694597988 0.5639025705020183 
5.754408722339699 -0.29901391540229955 1.3487050033915637 
4.514476003610445 0.21008784185156432 0.16277570238520128 
1.254898419920966 2.6258591679553565 0.5009541941141903 
1.2562205054166027 0.12938370964601115 0.08804260489734796 
6.013098362523216 -1.6062296210761546 1.3665227088182736 
0.5074172790384752 -0.10227569880416142 0.02466427541232617 
1.7480615163163844 0.8658692769135679 0.7872103886967617 
3.004454292474209 0.9813197221988559 0.8979276919019523 
7.01064084036404 1.4976345272936695 0.32128435384052867 
3.2502259736322814 1.8831821852138697 1.1985074337856885 
4.004970663460865 2.698881166881737 0.4320730088960317 
6.754297070711351 1.2261589272961992 0.5866588554410935 
6.2529036523790404 -0.04069089654303437 1.107945045122192 
7.007979413554098 -0.13036032933830646 0.32453539228217987 
0.005465898053267667 1.9321587526201542 1.158709298712208 
0.5053306117614813 2.2335510133893677 0.8708626244513258 
3.7548303488500543 3.1796045152060777 0.057493753761908684 
5.253221368973704 1.1132269468959985 1.0128415171752105 
5.739829043586279 -0.6184632728743662 1.3309228240421125 
4.991926661905915 0.1344862063922147 0.5509607997344574 
3.7518108354974316 2.9143011512279577 0.23264365567091166 
3.996251844479398 0.889928375717263 0.8105092611257725 
5.50024634032851 2.297585015794515 0.8144357998024686 
7.2585132124700165 1.6466097116933491 0.13731575620304093 
5.250775650512589 -0.5728480195601087 0.8048443585588206 
3.5071580843284123 2.5312059566083227 0.5867524894521926 
6.252698074083218 1.67113806127424 1.1071347927736412 
2.2586349995489075 2.635558206915837 0.49821891624376025 
0.7445220009870662 1.2053560201551543 1.1170389015899933 
7.0138642843177825 -1.5692660227372925 0.3277792946427054 
1.2599924424012505 1.4608398701410112 1.3381707930428217 
3.506817397547164 2.1321429168552637 0.9857885905509263 
1.4976068328591314 1.469769922632962 1.357787337032526 
2.750178942132727 -0.09028324032186535 0.028676310737466813 
6.753581952227832 0.6072449249723277 0.5883639251255529 
5.4994871896205355 0.7904775615468326 1.0854601985901324 
7.0061984846567835 -0.13298064010340024 0.33697359423413975 
6.994400937791461 -1.790624128831817 0.3150102347240935 
6.753780632576191 0.4446793625872623 0.5861740699111458 
5.50194544613256 1.5786831080098949 1.4280351030056975 
3.75719336615349 2.687486784985593 0.4351210826643067 
1.9956446582047813 0.671615949265869 0.6027936671951648 
7.0061385466674135 2.5880637037667946 0.3187826863731472 
0.7600160545695682 0.14164370359027684 0.09904369759512596 
1.0018351767157188 2.939380210899834 0.19730155141268124 
1.7643306529650944 2.7195171510686844 0.42229672372604765 
1.2540873493271554 0.3460291621707001 0.2909502593865768 
6.0007327158502175 0.24971857235956912 1.3672482511019264 
6.509619048527224 1.4835851364509987 0.8522224281874435 
0.7564025958215965 1.7457478943781766 1.3388571851433508 
6.249661532523924 -0.026757560708977165 1.1260480283894085 
7.247305437347508 -0.7441187216358335 0.14037787843268945 
3.508691095890577 1.0805056165325877 0.9934250696739882 
6.5080109843860185 0.21367097905925345 0.8595937992370024 
7.01064084036404 1.4976345272936695 0.32128435384052867 
4.004129991340296 0.03009337697519683 0.07345913402474039 
2.252396532427528 2.8694058692636575 0.262848217946596 
0.5029656751667655 2.7767311180759178 0.34645414491015336 
5.497602996748611 0.9470943575986271 1.079066572287026 
5.757406969077551 1.7174086002947515 1.3682734311362896 
4.7614806441213275 -1.546426476440754 0.2995410575133461 
2.0069516813295154 2.0249449206740313 1.0681254558420872 
0.010371834057171741 2.5983801939863116 0.5340967993003533 
3.007829098666929 1.5886209680241543 1.430852731100905 
2.003117737287277 2.1552885142579328 0.9365255207267867 
5.9963757090879035 -1.4702215498977858 1.3688021781386703 
5.003222487219493 1.1939207513289702 1.0904378552293854 
5.000221899419854 1.4482016709214287 1.3293402876169595 
6.503827438821429 -1.2591664040962531 0.8502549186727786 
1.2538236570039936 0.7306279637731008 0.6588835064157479 
5.751619133063665 3.187240673658223 0.04098912474149082 
2.004117965356599 1.5951191795863142 1.4284366338777164 
0.7576674446000662 1.5424110823010744 1.433059155995328 
5.750311147904679 -1.4412925071252314 1.3354775677737003 
3.7548303488500543 3.1796045152060777 0.057493753761908684 
2.50028716089718 0.8363871552666531 0.7600896946232192 
1.752386128900447 1.4624440142245398 1.3423945261934707 
6.4935219988197375 -1.8532673823758736 0.8565694717523882 
2.4981180398394 -0.11099650286696061 0.014821949832683458 
6.499486899424081 0.09323519972254886 0.8448112145261701 
7.005572926180576 1.1578968311577225 0.33099513501818123 
3.5031349341277114 1.1127599603957992 1.0295324092452371 
6.998239444205221 2.539325388769569 0.3189087406902178 
4.9961647782030925 -0.39738865285323877 0.5489009099112611 
5.510804734974652 -0.038902911887954715 1.0722042583488376 
3.7485181394121843 1.5856148019584924 1.4351747556966465 
5.5076228332964074 -0.8139761687679434 1.0720389435661173 
5.997094283521448 -1.6193817589032948 1.3541680499060182 
6.997052761165786 0.5912774417273755 0.34115423059649796 
1.2496493769517856 2.631463970431166 0.5003321437744056 
5.762678337593032 1.999229778368727 1.087362231076322 
5.259166918673072 -0.9358121815615813 0.8186316369091861 
0.006895126995859493 2.1446072287410862 0.9519796606042153 
5.25588870891968 3.1081287012787615 0.1256814340530497 
7.262655999517795 -1.277389740358499 0.13535158177282822 
7.254481333061012 1.1513501885802708 0.1375616836200342 
2.2381218510593612 1.06427571100864 0.9712098140161879 
3.750022259876836 0.19418856799546028 0.1427837661538394 
0.745953833504898 0.16506426100643937 0.1222315513385071 
0.7581908229677047 0.6066672549533277 0.534549326197356 
5.759978659132227 0.5742489987214748 1.3469985751368214 
6.751633637512586 -0.3157207781226338 0.5891769337151769 
6.2476451383051 0.47842428540627574 1.116325175367739 
0.48991654506176363 0.11878241854929525 0.15527648549374953 
4.2466578545973475 0.6293962430974238 0.5573780229107802 
6.998277987491867 1.8217203870577527 0.3166072978913714 
0.9945714527214312 2.702058757222254 0.42623537650938215 
0.7489259752529225 1.836050017611565 1.2404380869083003 
6.2522835557674865 1.70546933030622 1.113873398991196 
7.009745252278538 0.3861456643790676 0.3237054110787419 
4.503191201413021 -1.0289467123106406 0.09992318475407766 
7.01367340920143 -1.6916612792746253 0.31734766071755466 
0.5074172790384752 -0.10227569880416142 0.02466427541232617 
0.262310525246078 3.099391376094082 0.12809085613961765 
2.012386437898326 2.7782694793789164 0.35504390221998255 
3.7538346869321844 0.02918565632595317 0.07113733718854487 
6.245381998631399 -0.5736275148497884 1.1169891033903503 
2.751249247962679 2.1584190483736316 0.9406043114846606 
5.9987288288703065 -0.6336770712899841 1.3600079651776875 
6.258074221125625 1.0526592599302456 1.1039888574041745 
6.772821003745381 2.0913043834208715 0.5872071912230009 
4.760748731398648 1.563723905358207 1.4255994443823545 
0.26381555459392037 2.3695987059020007 0.7420710785844241 
6.2529036523790404 -0.04069089654303437 1.107945045122192 
0.7443796569187056 0.839202200581641 0.7483982012088711 
4.991926661905915 0.1344862063922147 0.5509607997344574 
1.5154785702545472 0.004396832857231479 0.04209156177690925 
2.50028716089718 0.8363871552666531 0.7600896946232192 
5.759978659132227 0.5742489987214748 1.3469985751368214 
4.503505072405928 -1.2916901870867352 0.10890056227247774 
3.5023496081448773 2.8809624924025936 0.26093177995293076 
2.4857242891318987 2.5330246448974827 0.5798903390066497 
1.4998692951188255 2.8736938974642943 0.2636184254858338 
7.253683539312676 -1.1457231716682301 0.13160197013922054 
4.253693469872961 2.899235784318958 0.23064761933653935 
4.259502246487942 0.23467204234956648 0.1937961749569602 
6.747215853679696 -0.8380782420890336 0.5910788456436776 
4.014578237401802 1.0951339984612576 1.0033846974447478 
5.0056407015775175 -1.5086502726722555 0.552768261077764 
5.759978659132227 0.5742489987214748 1.3469985751368214 
7.001111492573037 -0.7853588740112734 0.32890212385197043 
1.503701878344378 0.9630778257464785 0.874280021626173 
1.2599294702291288 2.520180493912652 0.6065166022312429 
3.7581943727091076 0.1652670975267503 0.13305604916145303 
0.7554328217219571 1.7117704111304486 1.3683538656133079 
7.254718017094101 -1.261926478489335 0.13313561802039553 
2.2516024698913677 0.4993592930050492 0.44350562264332055 
5.4988663479501145 0.3909599655026879 1.0688305513599565 
6.2529036523790404 -0.04069089654303437 1.107945045122192 
4.006147954302216 2.622059190898227 0.5030536613990534 
0.999309580631825 3.102103587155918 0.12969119693936615 
4.75476797784504 -1.4918750503010374 0.2880107327415519 
6.511655020682907 0.7284824543711649 0.8442084378588713 
4.753604278034829 1.8772086369232357 1.2122826113867433 
4.258516123609549 1.844208821269668 1.2572176023905135 
1.2448368883802539 1.0106755262300673 0.9271562943983356 
6.50565155286227 -1.2203561480737783 0.8597692854415917 
2.7497419711505033 2.8752006761377067 0.27872320062517747 
6.7621537629756805 -0.7628154861448997 0.5971049729180065 
2.253764628870715 2.921946995278632 0.21761045112100158 
6.256657507409546 0.8548788788619133 1.1148138090074406 
5.2612148746261695 -1.7517054175294147 0.8192997377325419 
3.2611082531673863 2.7411107388610314 0.3753484876640645 
7.246375186559753 -0.4176484031862343 0.14612392375579394 
2.75348354212723 1.2956269829231117 1.1934768554287039 
5.50024634032851 2.297585015794515 0.8144357998024686 
1.2509223840001082 0.0029013428165078747 0.032371929639728014 
1.2646679637925005 1.71700162681404 1.3654777151603823 
2.0069516813295154 2.0249449206740313 1.0681254558420872 
3.506165903204281 -0.05129398762166069 0.07225684382489364 
3.513020513814989 2.52182739598381 0.596118289675578 
3.2502259736322814 1.8831821852138697 1.1985074337856885 
6.7447087099446295 -0.6770834554823593 0.6003841835059879 
1.0080084810663827 1.4517736067355 1.329256105650211 
6.2478682820129645 1.2157997263139975 1.1128731072792521 
6.00461148170814 0.8185631221518854 1.3622375322516749 
3.7505559416818475 1.443443290579578 1.3406135422371195 
1.9972533944133342 0.45868509747667224 0.4037408072878992 
4.500453102021932 -0.5091026813166483 0.08772883192927071 
2.261381002306998 0.48598798941916926 0.4366572920273215 
1.9873365443394957 0.7991577278606953 0.7170364251955337 
1.7597999734831773 0.7754580314001501 0.7096798973787493 
5.499784579898442 -0.5034922012905516 1.075818950504056 
2.7476921790054667 2.626977187771851 0.4912249962912902 
4.751022786474035 -1.6424018733903392 0.2836907886194719 
5.49670906945082 2.0242969456218254 1.0735066595315512 
5.012447592115863 1.121105413477262 1.0258946041978256 
0.4982409720371737 1.777096249942644 1.3018028013445815 
0.5049516922520969 2.4212103584056672 0.6930605201931469 
4.751942816356877 -0.8981344900097231 0.28833580397288006 
4.254734504528055 1.037903769674291 0.9565075625308078 
3.0007618640220617 1.4205059385191547 1.3125494823413135 
3.7548303488500543 3.1796045152060777 0.057493753761908684 
5.752049563206799 1.352096740172745 1.3290617475230497 
1.7576532466259176 2.2573794237686315 0.8527882511789662 
5.988323565802462 0.27234566113687975 1.362595526818416 
0.4949322767890529 1.9758391757709328 1.1165834087057553 
3.4994405038095113 0.20120455390885247 0.16687219594659733 
0.25985777325488657 1.8405108605647476 1.2446431599779175 
6.7565463245158295 0.6032209194696384 0.5979921447794585 
2.004117965356599 1.5951191795863142 1.4284366338777164 
0.5009448357053627 0.8171041697066262 0.7431030652927116 
5.506381656767371 1.6366934625546532 1.4273712572831447 
7.257396903536748 2.1722993757197435 0.1484310780776738 
4.0035970123079725 2.0289971216793177 1.0585644166192203 
7.011479423097116 -1.3851311966803261 0.31883034273287886 
3.25120096167786 2.7122496881136344 0.426505504337176 
6.747882674856871 -0.38732781891146667 0.6003287930717622 
5.504404586249456 2.752416555006526 0.3818391708006439 
0.0066360713980703374 2.048373461191363 1.0411570953674696 
5.510351176567545 0.389972128005138 1.091447533578514 
6.998517748741383 -1.9303198583455352 0.32317726548286324 
1.9999006394350145 1.1683744066887296 1.0873199054037637 
4.748077282893734 -0.4294918067199982 0.28682558086489235 
4.74532329064809 1.0913042979994192 1.008557151018602 
7.262655999517795 -1.277389740358499 0.13535158177282822 
0.5021158097557806 -0.04815337978204605 0.06142037049560292 
6.001160165582114 -1.5613024202042796 1.3697941818455066 
1.2596018814563361 2.53664857787097 0.5809552182141177 
1.2459916661733168 2.9740044704828428 0.17252426434199428 
3.513020513814989 2.52182739598381 0.596118289675578 
2.2466312868348868 0.09888250394660514 0.13630931537726754 
2.007627858814048 0.7853565997455332 0.7090131724555788 
3.993820311089675 2.562121867370452 0.5449103299167015 
4.503716806849926 2.094366595144036 0.9971626363892867 
2.506918790159447 2.823039926395253 0.30668733786495006 
4.755344355052333 2.068989134032332 1.0452172439919292 
7.0138642843177825 -1.5692660227372925 0.3277792946427054 
4.999970750941923 0.2679949917281555 0.5478431170604603 
6.996110824031742 -0.41398830659492636 0.3415880978422694 
0.7581908229677047 0.6066672549533277 0.534549326197356 
5.752750992811165 0.5472149769850817 1.3304473290201404 
2.9939085834997567 0.3087867141122252 0.2643923265668127 
2.995499253492767 2.039000901384733 1.054363254073309 
7.254449103372964 1.1361578014676705 0.14739103486070743 
6.5094024788004665 2.852960742075401 0.2864143946312976 
6.996119376547633 -1.1739921436100742 0.30898297761558713 
4.751702887595544 2.404076117723352 0.7151459712094677 
6.011309227569512 2.9382063178583677 0.2100600156275038 
5.763229983427129 2.000153346264333 1.0853747109970786 
5.508986821505921 -1.7259290385215285 1.0581580130120423 
3.5031400286270644 2.073669968958295 1.0265036250313269 
5.767577743406542 1.9680737604123772 1.125649907469091 
6.006509912984529 -0.9570815158649911 1.3589910063592396 
4.744918722188379 -1.0660923770091335 0.28102931190106534 
4.7582926364616975 -1.476145058269517 0.288725205498319 
2.998681618966541 1.0418351899191647 0.953480135361999 
2.4995179638149154 3.1144168684551996 0.11586512123616483 
5.254429994775323 -0.7381671927614701 0.8108810919190526 
6.749042751490435 1.0882343500936726 0.583083077113049 
4.502441789732166 -1.9457317789982596 0.10535521021476763 
2.498873321696771 -0.04865550077654445 0.057652513916506824 
3.7511130164435276 1.8929037013757317 1.1877846489588857 
5.000320357507516 -1.156950610871125 0.5458467407726184 
6.009048254953413 1.9851279122643075 1.1049312801637914 
6.007791921399526 0.9720432269082961 1.3600832718888556 
4.9922373305204095 0.1855834915142715 0.5466773570473672 
7.002524828769751 -1.2972952328940306 0.32174863657283065 
2.009184860829622 3.141570299922454 0.0857830497826583 
3.2590943228564666 2.3271346154709387 0.7803389401644384 
3.0115859148357496 2.5596778126245834 0.5606950193411895 
