3.749339542941573 2.799791405858731 2.213206234364386 
1.7515882742270301 2.4436265768382017 1.927210947556335 
6.003589840553523 1.19148583155022 0.9459887082531698 
2.012324365620362 2.0834788274550493 1.64726515997729 
4.516095895870114 1.8348793881725327 1.457508816911569 
1.5071014316050513 3.1776343080043934 2.524445147744952 
6.005779764204362 1.5351176695469828 1.2191020993754507 
3.7464477213537077 0.937265144810508 0.7481643476688264 
1.0017209774299922 2.4518675691820637 1.9378284384351177 
2.9951185758726178 2.25383685899065 1.7785383184314711 
2.0009260110362392 0.060200117269269465 0.07040692627277902 
5.508933877564714 1.173497147569088 0.9478944808259298 
1.495625451142908 1.116261229877075 0.8908068488694603 
2.510667116016946 2.3042132512765674 1.8376105235848617 
5.2548966642636366 2.7397976158724044 2.1593843011459772 
1.997610791502905 2.237356575971887 1.7740133671758562 
5.249984878965836 1.6168519281415978 1.2904716813223767 
1.9984839996716801 2.257093772673578 1.7839752748179527 
0.0039253824121532705 3.3745905085654586 2.624571278369023 
1.5143539319924126 2.5609264240085534 2.0130985163539648 
2.7645297638857027 0.036878670548685495 0.03664187576287816 
3.00448428555904 2.5878972653012493 2.050853003772709 
5.995402715888195 1.3027089616577612 1.0316581487073682 
6.497531920262387 1.2619722428287 1.0081746908741465 
1.5004568460394527 2.0846057792499173 1.6421146003455018 
0.9986803281401871 1.23950589808011 0.9842250498441423 
3.7464985930987784 0.06887970317262541 0.06474043892980827 
5.7550498118781634 1.3697809421712126 1.1054442436547576 
1.7630970601669655 1.9917707677391783 1.589012422268845 
5.755350733152538 2.614665418651173 2.07371255136705 
2.0113261137636638 3.1710818938012406 2.4981694867790543 
5.7657914815196865 3.2681307789105434 2.584385940545048 
6.517641033202836 2.6860083794446337 2.1132161413483552 
3.505315369110881 2.089354808839812 1.6479552603276646 
2.5062383448285805 1.3068954218064939 1.0475771807374383 
3.5025933601319226 0.9730261248315363 0.7747077389608461 
3.2579011885099605 2.0324287719108276 1.6040874141486667 
2.0070691535821577 0.9318908690240909 0.7428255634946498 
0.0039253824121532705 3.3745905085654586 2.624571278369023 
0.24609540841770094 2.913119145815921 2.3032847758281227 
3.744887500106853 2.4572546058715985 1.937535405573169 
5.754821290381187 3.2169921159381016 2.546548943110066 
5.257370781417576 1.3707718073864652 1.1081231165495453 
2.003199275423783 3.2818159828373497 2.593413211589803 
0.9979371020540941 1.9961393138388628 1.591297163390982 
5.001218302426923 0.46106155049463754 0.38015695654604753 
2.7434699482439546 1.9225290788993465 1.5416259839797342 
6.008189708418529 0.5919636091078477 0.4704517467712381 
4.742171251887596 1.3128968254779707 1.050181683303495 
3.0014958754223793 1.0844916763223396 0.86966549243921 
3.2585428635714084 0.8812821481466155 0.7167041817225951 
5.492153940573464 1.7505037032957145 1.3882010861990237 
1.5169716535782518 3.469327594042381 2.6565759322485 
3.748046208093791 0.09068164435344554 0.0899772882445195 
2.5114067941671783 2.1510698143882196 1.6986478338027355 
3.003839814078719 1.9002118276295872 1.5047831206671054 
2.0006728450869145 0.2650918454191513 0.22508502014388862 
4.007230342455752 1.4708852512845925 1.1764333579243322 
3.994565459870666 3.3673973517832203 2.6395549405027765 
0.013927653903283137 0.5917967638121855 0.48379978813629176 
3.503975209639702 2.551488360911475 2.0118676627112424 
4.013333900526198 2.3987596708455623 1.9083871246862016 
4.24616876827257 2.923890837567272 2.322992446662048 
1.755735575683606 3.2685073177081083 2.5736148645196577 
5.5139563297485115 0.9762264632820379 0.7767714627388218 
1.7498634690504562 2.3504419349582335 1.8408373118869814 
3.004228900048494 1.3456608898324736 1.0789012621309397 
6.011594218308737 2.2706068800870156 1.8094633689482924 
1.4962078385003126 1.5186376382349929 1.2114346222299288 
1.248810676910535 1.6131384698479978 1.2793450315798376 
4.999910340351823 1.3412205411497373 1.0713396334802223 
6.498437555900952 2.3701959401898627 1.8756609735822145 
4.759893952947564 0.9370491484749484 0.7442858537392316 
5.511276992313422 2.9727500832578113 2.3493164278179557 
2.75883984246685 1.853911009414236 1.4872756329034182 
3.004228900048494 1.3456608898324736 1.0789012621309397 
4.751351973337885 0.6863030587657297 0.5601827483354131 
0.2543959655021356 0.7739306445228982 0.6300505879597202 
6.007767126795306 2.2223697806861265 1.7695049761798478 
6.25511793690591 0.4727046495781019 0.38158352614380886 
4.250247950884605 0.44071563516090995 0.37219813224651244 
2.2405347179683686 2.7982157670378105 2.2187585499386318 
5.990592912776203 1.7896876155495702 1.4168143820889223 
4.9947114884577655 1.3388210316538551 1.0760860811289221 
5.509127613899981 1.0604129697907125 0.8492574236839046 
1.5172942846395194 2.0682289003421963 1.639442974454796 
0.008225531753991457 0.48185054682166095 0.40241280932613094 
3.504099069095145 1.0835883435100924 0.8667117476185265 
1.248087508427863 0.939188006530126 0.7585638627104765 
3.008268033346532 2.7324905755509836 2.177087299597344 
6.001506242766563 0.5434625718186631 0.44923748219282394 
6.2588037288108165 0.809299359692763 0.6548313058539138 
3.749339542941573 2.799791405858731 2.213206234364386 
6.500630518507944 0.536285957265895 0.4183460429273364 
0.5104662375442848 2.927005496167879 2.3067016141228383 
5.748488186500896 3.1857435329322965 2.5270691586871843 
5.997171571556104 0.0906751096087417 0.08616932497420297 
1.7476416342955927 2.4545969629054905 1.9303006883152876 
5.997126243666431 1.5594429058182104 1.2490339926395448 
0.7470112325444492 1.6798665667559447 1.3421192805740796 
6.012761298074905 3.3967638141864183 2.6353195167427517 
6.24268742280064 1.3196561933424962 1.0591855003410486 
1.4988317692112079 3.3545837702994934 2.635988508636982 
2.751720425638659 1.3015917974101585 1.0344104678870634 
4.74763586608084 0.800517624688267 0.6532251772216936 
3.2574684588288663 2.168531710226084 1.7034529491173263 
0.0009880773164918021 2.94231124449184 2.3240861374379103 
3.7540222436302053 3.3634903804666942 2.6439721730475108 
6.251979607555845 1.1020901467708242 0.8854239188770693 
6.25247761528694 1.7459803533111993 1.3864368965265927 
1.4993689721441095 0.32267823104317706 0.26832386000426206 
4.757096957320397 1.1108072025183355 0.8879761930253259 
4.246531562754662 0.9362240154996848 0.7535036773235859 
0.2602603802036277 2.5527421099101497 2.013663920404379 
1.7515882742270301 2.4436265768382017 1.927210947556335 
1.0002141477477247 2.271608735629057 1.7766065079785391 
0.5029540659533319 2.8736009853898414 2.280560212582791 
3.008477072033327 0.6340602008823706 0.5253598855208947 
6.497292377900587 2.2428902330815865 1.774997362069275 
0.7568928658421344 3.468991382013455 2.6460925190708657 
1.755735575683606 3.2685073177081083 2.5736148645196577 
0.2629183664761438 3.4462742071901036 2.636864928231612 
6.00949512769877 3.0107102009354523 2.3764395153713442 
0.9947148438275215 0.3434267758167736 0.3008008888485942 
1.5109539896206516 3.013987422160717 2.3744595516405096 
0.24657218610999235 1.1002699065498311 0.8796538025820819 
6.2488218903571155 3.235339558244321 2.5514339981032506 
1.0107164965023556 3.325177094157945 2.6277516449768146 
0.7629242559001372 2.289156980355769 1.8154572374349704 
2.763772039697563 0.10504062930443472 0.09472875707922754 
5.995402715888195 1.3027089616577612 1.0316581487073682 
6.256093701290197 2.3893141728740335 1.893711621521144 
3.0040009923235043 2.418710802868441 1.9067913579888416 
6.258280800772641 1.274869085755757 1.024341873707931 
6.257423124649614 1.7491996213777565 1.378008930698957 
1.2575059400311155 0.6138467498382046 0.4976728818770418 
2.0127865468905672 2.565633388145 2.0335793420600194 
1.010300287290321 3.4499424176497437 2.644203604909505 
5.265506666393553 0.8507748484897752 0.6895549581296343 
0.7458537582056864 0.7042743724038137 0.5753399872532275 
1.7628337545164654 2.6599117680073934 2.099853692008947 
3.013614713174346 3.0311024250112415 2.3874660063621804 
3.9998070053089116 0.7634035738481001 0.6199809175438947 
2.0127865468905672 2.565633388145 2.0335793420600194 
1.506084982744741 1.0027225924162437 0.8047008224028862 
2.0006728450869145 0.2650918454191513 0.22508502014388862 
6.008189708418529 0.5919636091078477 0.4704517467712381 
5.74702131569458 1.3469279104549767 1.0766717047779457 
2.7518842453392662 1.1258836315097547 0.9030843108504674 
1.7533845682782294 0.7823526310082092 0.6544265829100181 
3.002738963325054 2.6682241301980554 2.1078883419294843 
1.5058156934200257 2.7758956899653313 2.1951229069870686 
1.7593434320188994 2.2898020255838705 1.8125195418691313 
6.498437555900952 2.3701959401898627 1.8756609735822145 
1.5099681653153156 1.1847179975242303 0.9477397187937514 
3.000170495079926 3.1047481286181657 2.454598570273342 
5.758184961654427 2.232246553857837 1.7674093787303813 
5.261408729744368 1.9523196847679323 1.5583299907097672 
4.75513157917044 2.2742855737559737 1.7982984672796758 
4.5136830436611985 0.7247770997159972 0.5983396271668698 
2.998662611046681 3.093736597561252 2.4423756479919367 
0.241454827430651 2.6439292087247526 2.090164501344509 
2.9914446370760213 1.8336917999099236 1.450415709779409 
4.247929275617173 1.3729628076089533 1.1042095013655278 
0.25086629299337876 2.4406683010058274 1.9426293828336632 
5.7486908267323225 3.3159154970353244 2.62101699446901 
0.5038417465639572 1.016256398743409 0.8337084214803967 
4.758397368320687 1.5254014862035876 1.2206583124287413 
5.5068268366706175 0.49187602613282155 0.399454285975656 
3.504910196866904 2.576718911106365 2.0361721149247565 
0.502746467364416 0.9430773997186943 0.7640666432814471 
1.5109539896206516 3.013987422160717 2.3744595516405096 
2.2591009325057696 0.8802929057105378 0.7014922320509163 
4.505997304235767 2.058096189803255 1.6365418111615728 
0.9942627775920554 3.431118541371307 2.6421516815991892 
3.266964991131777 1.3092407172762048 1.03191271339811 
1.4998154037290317 2.181374118718764 1.712628899478469 
1.7496675988808787 2.155535647532 1.708014964526758 
3.25712069599704 1.810693878395233 1.433810104308148 
5.0053505229706055 0.6528547369789467 0.5260376156158655 
2.7435841457891863 1.882273460259387 1.4968949158247276 
5.996882688141821 3.105992871402689 2.471227030482763 
3.503695726058074 2.8386242128314865 2.244652873146363 
3.7541796266710556 1.2074124307694034 0.9688544639236695 
3.2556712872581706 2.6415906858108333 2.0829642710921314 
2.488973502175827 1.1665552941207304 0.9362160328681333 
1.4935071469624326 0.4225327312271662 0.3591803555947657 
3.9998070053089116 0.7634035738481001 0.6199809175438947 
6.018092579955685 3.1668150788541287 2.4941602965870007 
4.514075649352898 2.147985018200113 1.6988667878513877 
1.7554312326511585 0.2321769107274503 0.19584755590846184 
5.989307631805066 0.44728254675493645 0.3722728866197463 
5.4992767043045845 3.463526587635246 2.6603925072634205 
0.7548901839795955 1.335373863163716 1.0731060517925066 
0.7513016055967057 0.05014341714084553 0.06566140301801138 
2.762576079962416 0.1153563271671265 0.10844231727619928 
0.9995682299280434 1.7390850214505928 1.3705339523998592 
0.007697276903849342 0.4021292083942954 0.34141217447392896 
3.498853947102233 1.274697357020494 1.0225138148478887 
0.4965281526197748 2.878512137770834 2.2754572707492287 
1.2491386353320102 0.6036423853101383 0.48559563059308297 
2.251626649339466 0.8480044551431898 0.66996836763429 
6.2522748742470196 0.301670843405103 0.259266506002772 
5.511270292877876 0.4600836939737063 0.3859687440376615 
0.7523274503633216 1.9062984233886606 1.5204863322346502 
0.004905380579663513 0.06843928104901442 0.0788440417319936 
6.2542775347749116 2.5003298695485148 1.9924282156444069 
3.7599548131677394 2.6684476473181062 2.11186699158337 
5.005331934847441 1.6299327753921538 1.2890967733732175 
5.244394762264554 0.45252068200104195 0.37674051326324925 
1.7584029877928784 1.7031526179134775 1.3592798838076756 
0.4919441931792067 0.6953842910745697 0.5651733469151294 
1.5058156934200257 2.7758956899653313 2.1951229069870686 
1.5091557495975156 2.483768861611404 1.956055372042152 
0.5041848880521632 2.5067436370333027 1.9817361099509732 
3.506715113516784 0.9994454225028726 0.7845935518600049 
2.7537509115749232 0.16855233573545583 0.1380571007792203 
1.2491386353320102 0.6036423853101383 0.48559563059308297 
0.0065425089748806075 1.213097519544219 0.9656028112117524 
5.262820733308849 2.003316215791741 1.5950186267605047 
3.246481563249269 0.8663552083942389 0.7031819667083945 
4.488258094802736 0.817784333202203 0.6604868306625582 
3.7522870388932903 1.6815319996404852 1.3482370553512195 
1.2564731234143094 1.6864267658483747 1.3308053978153929 
6.250088327463942 0.10426734713783778 0.10413918631191373 
5.993705261551012 0.11805022409726068 0.10438075749175069 
4.758229366429041 2.52773136256731 1.9996222214840826 
5.508585213131844 1.3668569442116705 1.0910800592948717 
4.260387378908798 0.7884164747382808 0.6413402940034396 
4.760685983555787 1.2057911667710894 0.9711633421359913 
0.7512283228715592 2.3195700465349605 1.8328920246527534 
4.00630988239166 2.3891826893592842 1.8817380599100173 
5.993705261551012 0.11805022409726068 0.10438075749175069 
4.750810086071576 3.0338501315087103 2.3991998932397967 
3.0018267404782724 1.3070535275732469 1.041504685007372 
2.0077484279019218 0.35900152572434574 0.3059902038103155 
2.5080401127116474 3.2411878205139635 2.553633894190595 
4.013333900526198 2.3987596708455623 1.9083871246862016 
4.765032364907746 3.368243706828586 2.6427966949161807 
3.7540222436302053 3.3634903804666942 2.6439721730475108 
2.9965922389978124 2.6397283234906315 2.094999340888936 
1.506084982744741 1.0027225924162437 0.8047008224028862 
6.260129499857604 3.0032647159665617 2.3802009635714505 
2.4989375647323717 2.655862597159393 2.097900306066898 
0.011181173230135651 1.984701033787995 1.5800803891395254 
5.756157717416315 0.908713660640363 0.7425617745906986 
4.2482666453613085 0.40063276565041905 0.3298747506524183 
5.005163253469774 1.3833048583515424 1.1096313117850853 
1.2575059400311155 0.6138467498382046 0.4976728818770418 
3.9934271880882126 0.4426894759222325 0.3529560183826225 
2.245508303485036 0.5600161943724908 0.4546153167096636 
6.008229304936321 3.4552692519813366 2.6448456067094344 
6.001271083262413 0.03992064794720163 0.05238498923517959 
5.498040909746608 0.9924400793091889 0.7892818269753139 
5.0053505229706055 0.6528547369789467 0.5260376156158655 
3.2468097128765363 2.922348914551936 2.3040448682080514 
2.5114067941671783 2.1510698143882196 1.6986478338027355 
1.0009043395743216 0.8224503149346722 0.6554187750914056 
5.004693998730843 2.3209626371394614 1.8400214813697506 
2.494950907822035 2.971108662721855 2.349565050581206 
1.2563475714318484 1.4930983429473978 1.1826089043706856 
0.4970259294173917 0.1239905876272421 0.126961497917288 
0.4969489969263051 1.3839078862933003 1.108566747139013 
1.009619329105011 1.4948536761519715 1.17569188333745 
5.262709222850993 1.2736185317207394 1.0173356404039262 
6.015060039069356 2.304960653055572 1.8246672174670482 
0.24875387767740295 2.1579035144855485 1.709194017677281 
2.0000154141123225 1.1077317797141641 0.8965863087255987 
4.498324506619718 3.462152987021315 2.6419559882689043 
3.7541908406006206 1.5056399411223236 1.2010755085320952 
5.505625106766981 0.11474174382404204 0.11168382218888068 
0.25990044166520804 1.2323229206552129 0.9837008230005507 
1.2427748945129489 0.33853225011443594 0.2854011561306149 
3.749438406434261 3.241470052228282 2.5526711458862255 
0.0025595968027109493 2.6317300908953873 2.084199659190536 
3.9930971414565626 1.4234390573986864 1.1292476154472773 
5.746683802368848 1.467564359663487 1.1621748691278824 
4.998812023765311 2.1498788107540547 1.7023573403889052 
0.00473926612311322 2.084249449203371 1.6521803947683895 
1.0058924608190776 3.1279602059954628 2.478668586038487 
2.7517181091906333 1.2448548348129478 1.0093411135557722 
3.25712069599704 1.810693878395233 1.433810104308148 
4.2554611991468105 0.6893311984458393 0.5426900936456666 
5.51143521266359 2.4777567210039444 1.9750419041686227 
2.5050550781177896 1.2861717406412427 1.0321173096361131 
6.24694990335405 1.537867437917628 1.22322407496161 
0.502746467364416 0.9430773997186943 0.7640666432814471 
3.2585428635714084 0.8812821481466155 0.7167041817225951 
5.251947797378262 1.6591498618101295 1.324312532647004 
4.510627077423039 3.1608348091193452 2.4927798357328474 
3.509476647178474 2.295809800320972 1.807075296647495 
3.750455145341731 0.33777352174288894 0.28097012183618714 
1.4977124465349376 0.3168397422491748 0.28439059255969407 
0.0013893315468342625 3.0711900667160434 2.4247436488835454 
5.754821290381187 3.2169921159381016 2.546548943110066 
0.2485504628713142 3.22250222584529 2.542167386569469 
0.7520902458075329 0.6471963146161244 0.5312598857446391 
1.5058156934200257 2.7758956899653313 2.1951229069870686 
4.997972070962669 0.17404886763004235 0.14699337309378965 
3.4947976515830375 1.2897954473038864 1.031547526079827 
1.2467074572596264 1.9551702129873758 1.5474152831062717 
2.247289375769425 3.0189230193336694 2.387760758935049 
6.003608915751318 2.5555850074403805 2.025431923395668 
0.002879869185765754 2.771214045048049 2.198814788693191 
4.001369841440165 2.1481051038880636 1.7093283180811063 
1.7639925228803077 2.4647941312583637 1.9585852034031925 
0.0009880773164918021 2.94231124449184 2.3240861374379103 
5.5071019640183225 3.1220617203500995 2.4614836996778577 
2.7514422370000955 0.7726602780250201 0.6286295120675197 
2.4976776175029567 1.2303250025175025 0.9765346721925051 
1.9971027119931377 1.3605817138062022 1.0832187414997783 
5.004727983741447 0.7097901688440722 0.5754703963167468 
0.4969489969263051 1.3839078862933003 1.108566747139013 
0.4969489969263051 1.3839078862933003 1.108566747139013 
6.009351499121771 0.910740793596257 0.7241936901922809 
3.0095589280156556 2.636210178382671 2.068842026885876 
0.25408642729043235 0.9144473837592083 0.733119439191936 
4.010838712565741 0.21944602549782846 0.19199360818905709 
0.5056517791356359 1.7555203764990575 1.397971849644247 
3.0047755476778497 1.4050585337265544 1.1185036482946176 
0.25520900625433984 0.758580641154641 0.6140328063877404 
2.2659213908900147 2.5078521295222482 1.982086508163523 
5.007783231841275 3.3108014805345474 2.614197771230069 
6.257118121029107 1.1142765677812485 0.8967609753457458 
2.2620035056743166 2.333828235404684 1.8494365754553472 
1.7462629318631635 3.4232886365254247 2.626109277627675 
4.254540439076799 1.8128509367552845 1.4354666978359103 
4.019574292668705 0.7232218789007073 0.5880678167915006 
6.257118121029107 1.1142765677812485 0.8967609753457458 
2.0070691535821577 0.9318908690240909 0.7428255634946498 
5.999623925128322 0.9836729679097266 0.7984564214717498 
0.26288337060501205 3.2951006620427576 2.604605714681848 
2.2525532735036076 1.2990155730119737 1.0352327373960422 
0.2505577985403454 2.0729965021277676 1.6407910105278352 
3.7567717172002295 3.0876874908576744 2.426930675269851 
5.005254535653626 1.374782968951689 1.0888642404227713 
6.256811957179946 1.1369864245187953 0.9069600861712588 
6.0050922683678865 0.19016236520156457 0.17652617958342584 
1.7435943794217583 2.5921571527997886 2.045460563553218 
5.250152637166071 0.463812189681773 0.3814710333076157 
5.246260625888408 2.8876470549999045 2.2785283554962352 
0.9996666582468446 1.5865515662446872 1.2637915771063353 
2.012324365620362 2.0834788274550493 1.64726515997729 
4.751351973337885 0.6863030587657297 0.5601827483354131 
0.4923936270342872 0.7582465443034954 0.613403550323938 
6.505028511090489 1.1734550607715997 0.9463696953499716 
1.5172942846395194 2.0682289003421963 1.639442974454796 
0.5202639105951695 0.9899805535205682 0.7983221972275296 
2.2552960195994953 1.506744089928564 1.2023564405637381 
2.2525532735036076 1.2990155730119737 1.0352327373960422 
0.9928918338491171 1.9212801112241298 1.5279165537150396 
2.747187005093011 1.0250108221749914 0.822678824771262 
1.7462420911837515 0.5225506786157902 0.4297604590295214 
2.494950907822035 2.971108662721855 2.349565050581206 
2.01066999022242 1.224838264129112 0.9906906176876794 
5.496465649325499 3.4621206639472577 2.6353497786868747 
4.003739933786134 2.7904289785116925 2.197403444611844 
6.251103865422717 1.3719792328707698 1.0957948689305075 
1.7611810408273965 1.2164072598574711 0.9851743738027007 
3.253677619545455 3.377507460860375 2.622922120269999 
6.257283210330179 1.6394521214336855 1.3044720555127614 
3.5033625354222284 3.060532652964945 2.4247047324427435 
1.5172942846395194 2.0682289003421963 1.639442974454796 
4.0026862588999075 0.26066166538325175 0.22158516426803726 
0.5028619813271705 0.33284019723649094 0.26777713505791534 
4.500937882583558 0.34530154193054957 0.28374555937670914 
1.7498634690504562 2.3504419349582335 1.8408373118869814 
5.261408729744368 1.9523196847679323 1.5583299907097672 
2.260499745295542 1.5511987406602963 1.2269857779700857 
1.2619124231408694 1.256402203228676 1.0010736260044844 
5.749855456400788 2.6545228069999514 2.097369103106309 
4.00630988239166 2.3891826893592842 1.8817380599100173 
6.497398629249478 0.5149364928630856 0.42825181846412247 
4.252985228032576 1.4967831251055415 1.2013697772993457 
3.257895940727927 1.9858066950226294 1.5790758053499747 
2.9914446370760213 1.8336917999099236 1.450415709779409 
3.2570912021217855 0.9871621899813824 0.7936213844809793 
3.2468097128765363 2.922348914551936 2.3040448682080514 
3.505315369110881 2.089354808839812 1.6479552603276646 
1.5070356376643104 2.470760241946978 1.9582758838896503 
3.4947976515830375 1.2897954473038864 1.031547526079827 
2.0000154141123225 1.1077317797141641 0.8965863087255987 
0.7528192370262874 1.984642391237595 1.580086327756899 
1.7473645820805905 2.7516181176934196 2.169168392483563 
5.5071019640183225 3.1220617203500995 2.4614836996778577 
0.2466970672008775 2.8970823974746414 2.286273847531269 
2.5043807103323625 0.7073132643049743 0.5757679703398088 
0.006310191771780736 3.409665257274577 2.633508167458228 
1.249840465781102 3.29121039456526 2.592322175344204 
1.7452131122883918 0.04829215440560339 0.04049080642470719 
6.497531920262387 1.2619722428287 1.0081746908741465 
6.49957280706441 0.48822630698366865 0.40502507082333555 
0.7523274503633216 1.9062984233886606 1.5204863322346502 
6.503526618239857 2.85645691168358 2.2473122532459033 
5.005474625216765 2.674897680353898 2.134573588364785 
0.0016198877288068451 0.4842716058115289 0.3985942972254076 
2.49528007350146 1.0092642483383225 0.7904839089173001 
0.7489515246526183 2.599661026646984 2.0620334669927334 
2.754335377156191 3.328160113439398 2.6231072927022576 
5.006310349534046 1.8532476307698391 1.4661481108355203 
6.2522748742470196 0.301670843405103 0.259266506002772 
5.509127613899981 1.0604129697907125 0.8492574236839046 
0.9984668217839779 2.3652544370090434 1.8752897792037067 
0.7428774902750431 2.2375656845854235 1.7881625464550084 
0.0025595968027109493 2.6317300908953873 2.084199659190536 
1.0058924608190776 3.1279602059954628 2.478668586038487 
1.5065856910815039 3.2027876137111666 2.5207604855539203 
3.2574684588288663 2.168531710226084 1.7034529491173263 
1.4981275246258299 1.0585098953959662 0.858853334638739 
1.5143539319924126 2.5609264240085534 2.0130985163539648 
2.2591009325057696 0.8802929057105378 0.7014922320509163 
1.2563475714318484 1.4930983429473978 1.1826089043706856 
2.49543707108745 0.709360328687739 0.5751327832914606 
0.9984484862704788 2.6011168533573956 2.0547194040629235 
5.514700885597785 3.417773132335784 2.6211728295359675 
1.4999914006381718 1.2397124803372424 0.9819044727366825 
0.0013893315468342625 3.0711900667160434 2.4247436488835454 
3.25719116226329 3.4433318453586534 2.6244703994237266 
5.763843002186585 1.7043585318696175 1.3541400652209765 
1.9984839996716801 2.257093772673578 1.7839752748179527 
2.0096618779439455 3.4304810040125995 2.6418120136548877 
2.0066834192898755 1.604829137360349 1.2848442211566615 
5.001218302426923 0.46106155049463754 0.38015695654604753 
5.007977860228624 0.19814378314707262 0.17829575631053557 
1.23767107653563 0.4098551237724658 0.3418991079347505 
5.004693998730843 2.3209626371394614 1.8400214813697506 
4.01384673240857 1.1596676864894895 0.9284131612254699 
5.246393112380678 0.5565810315977824 0.4667660173999368 
2.2578725376190154 0.3860119125916005 0.32226701406763064 
0.7523790573347383 2.6483662012541584 2.0996862473524804 
5.264379790798357 3.1602002841310113 2.4817897957370767 
3.2579011885099605 2.0324287719108276 1.6040874141486667 
5.263096701096005 0.6557873210404587 0.5332155311722594 
6.498431564720786 0.5917745853449752 0.4782382232921643 
4.2488147209860445 0.38493939662792365 0.33373174553228724 
6.511139431387636 1.5569411312820556 1.2533258496671438 
5.9952434933809124 1.2109330979294284 0.9728398140216123 
3.4976638011867753 3.4145039267483175 2.6302703857836454 
3.7540222436302053 3.3634903804666942 2.6439721730475108 
1.0048064340010625 2.374946032865838 1.8724820299030371 
1.2521168311766124 0.4242199547719646 0.3454401008499564 
1.5059380533763342 1.4266765658010403 1.1358529773448545 
1.0017217988051201 1.967246971225988 1.5660298438754512 
4.24616876827257 2.923890837567272 2.322992446662048 
2.7435841457891863 1.882273460259387 1.4968949158247276 
3.7496020743394967 2.4358693871120027 1.9150539349208118 
3.7632833177016463 1.8510130813528978 1.4711113642311864 
0.7428774902750431 2.2375656845854235 1.7881625464550084 
5.254869116994078 1.247702204998167 0.9924867497794042 
4.745434763303495 3.1223543565076963 2.464706494920534 
4.755194265067283 2.8727478911236943 2.2821970147723203 
4.256912315111198 1.890772703526444 1.5068562524066365 
5.001472389233718 1.2222994308020898 0.9875461409461026 
1.49874974431327 2.5064460422817376 1.9683128467143574 
1.0083655904261069 3.380189002941374 2.6103388366565654 
0.011693677530192789 1.1916473761787667 0.9575574645015318 
5.4916462060777445 1.3752175257775554 1.1048142117620046 
5.248941920556875 1.30370206085863 1.0419582357882597 
4.988971383222555 0.03894906786090813 0.04914776020166765 
1.244063290181821 0.057641716349232985 0.06475557364170408 
4.750093380826262 3.0644186198480283 2.399270719342488 
5.994584237522831 0.030253287520832374 0.0415818035000396 
1.5099681653153156 1.1847179975242303 0.9477397187937514 
4.013787740580939 3.0713434893614533 2.427154713371034 
5.005889692957565 0.9526338449172511 0.755669527812576 
1.0135215272640756 1.185944356647182 0.939706167366707 
5.757168663750834 1.6004103858923036 1.2818616806352146 
5.005889692957565 0.9526338449172511 0.755669527812576 
4.756762663635029 1.1660597559027572 0.9374984999533645 
5.746683802368848 1.467564359663487 1.1621748691278824 
5.74702131569458 1.3469279104549767 1.0766717047779457 
4.0198183992986785 1.6551014742624424 1.2999149573158915 
4.760685983555787 1.2057911667710894 0.9711633421359913 
2.50666005316999 2.476328671795307 1.9509369480669259 
1.7566796036988312 2.465446088204972 1.9461342578005951 
5.748903289544332 2.899751871987955 2.286997487292827 
0.4958367269964394 2.8169726184066564 2.2254259318123357 
1.495375166722528 1.16102943733831 0.9294039089130207 
0.7512283228715592 2.3195700465349605 1.8328920246527534 
0.2498366197094343 3.23822484594846 2.558302527790645 
2.2591009325057696 0.8802929057105378 0.7014922320509163 
4.758195290962851 3.057468039509679 2.4057404133366416 
6.5109726148528315 1.8787302789698062 1.4984696999463791 
3.246962702716817 0.24190260667874014 0.2014563226151717 
0.0017813403504131657 3.1122991724508995 2.443663529983745 
1.0069347074713864 3.0643793451518437 2.4162177220085828 
5.993705261551012 0.11805022409726068 0.10438075749175069 
3.9995757226248703 2.916064244967299 2.295199195739058 
2.5043323315299197 3.248903349753153 2.560560237091846 
1.7513621448907095 0.4271405414388594 0.34175460946681263 
5.249355036628246 0.24425220588129284 0.2040216291967677 
5.256156237962586 2.2462637651279094 1.7700954696282807 
0.007697276903849342 0.4021292083942954 0.34141217447392896 
1.495625451142908 1.116261229877075 0.8908068488694603 
6.002258144306401 1.9782476809229876 1.565401984636278 
5.4884503127724935 2.198846835829484 1.7470461517696565 
0.5001005511150591 0.8157747478251952 0.644422545018842 
1.5099681653153156 1.1847179975242303 0.9477397187937514 
4.498324506619718 3.462152987021315 2.6419559882689043 
1.5099681653153156 1.1847179975242303 0.9477397187937514 
2.5047225673381215 0.24641938045665604 0.20317202297193399 
3.750277542387895 1.5883683214961184 1.2600086108059247 
4.259148602075454 2.100878796440584 1.6553626442104206 
0.9984668217839779 2.3652544370090434 1.8752897792037067 
1.0082765878461433 3.0826432243913544 2.443131865067132 
1.2427748945129489 0.33853225011443594 0.2854011561306149 
1.2556892804133544 1.0743997518877775 0.8633393138506413 
4.007230342455752 1.4708852512845925 1.1764333579243322 
3.2536046189630574 2.880483697418062 2.2855064812244095 
1.2472484709843739 0.11023421529111076 0.11013987746248079 
5.501696714405817 1.1011357706041875 0.8736098653163411 
5.755101476997807 3.3068055198567907 2.616044878159201 
4.257638743245002 3.128708259273976 2.4666985622542406 
1.4966725546188633 1.5474641276989278 1.2339002191538417 
6.494032946956667 2.871829699971958 2.2575330208720072 
0.5079296176591882 2.6460085892674456 2.100246548639442 
5.004675793446123 1.3200761350920185 1.048422034417409 
1.2487528219806618 1.427245584705263 1.1294538124947653 
0.2629183664761438 3.4462742071901036 2.636864928231612 
3.4976638011867753 3.4145039267483175 2.6302703857836454 
5.5139563297485115 0.9762264632820379 0.7767714627388218 
2.0096618779439455 3.4304810040125995 2.6418120136548877 
2.25760030574665 0.8926453177530971 0.7139788512683884 
1.5045009311700503 0.9896497473314856 0.7974278399718582 
2.2445376434730275 2.270138294500526 1.7965114634329276 
2.9996635648333743 0.3212098517382256 0.27262573474239893 
5.257614806095804 2.9053372890825546 2.2998240718992813 
0.24875387767740295 2.1579035144855485 1.709194017677281 
1.0104772282615921 2.793876698642691 2.2068291902047186 
5.254869116994078 1.247702204998167 0.9924867497794042 
3.013614713174346 3.0311024250112415 2.3874660063621804 
5.752678761425874 1.4282924306724027 1.1292694628549422 
1.4977124465349376 0.3168397422491748 0.28439059255969407 
3.250493120483346 1.2868809264751861 1.0261036456336707 
1.7581149859271803 1.152110272730689 0.9218780754145712 
2.256165244323198 0.9505202402602129 0.7597725158079344 
6.256731949481665 0.046959596929527045 0.04798779762430287 
0.005980752206072146 3.310240438299399 2.6091410102222996 
3.7567717172002295 3.0876874908576744 2.426930675269851 
6.256093701290197 2.3893141728740335 1.893711621521144 
1.7584029877928784 1.7031526179134775 1.3592798838076756 
0.5052486318173504 3.1513019995402547 2.491720646702938 
3.0047755476778497 1.4050585337265544 1.1185036482946176 
3.750277542387895 1.5883683214961184 1.2600086108059247 
2.7533928993354246 2.087573875670024 1.6630689610663363 
3.2525986678696333 1.8478400924205898 1.471908598346062 
2.5044641164089505 0.8357942684753444 0.6783384272495017 
5.511372466573447 2.6188981668277296 2.0717257218702487 
1.0048808743344486 0.4282081840596093 0.3513529299495403 
5.999584882600931 0.8099531015041488 0.6553452902624831 
5.501696714405817 1.1011357706041875 0.8736098653163411 
3.501365520631115 0.26240694855213803 0.23378165794845154 
5.504961374880479 1.8382318548433736 1.4639684111850078 
5.251164165950783 2.3951377250620314 1.8938782104799585 
4.510282671795468 2.404834664935637 1.9059068302372217 
1.7537665973595273 1.7728897001643205 1.4168555928885318 
6.005779764204362 1.5351176695469828 1.2191020993754507 
6.2522748742470196 0.301670843405103 0.259266506002772 
-0.002855787402852951 2.916860045070256 2.3014256058871436 
3.74604755350162 2.4810120373337243 1.9510852970859462 
5.261408729744368 1.9523196847679323 1.5583299907097672 
0.7520902458075329 0.6471963146161244 0.5312598857446391 
1.755735575683606 3.2685073177081083 2.5736148645196577 
0.0019128022113566456 1.825107959108009 1.4558676747673547 
3.2467015138727997 3.2970164121411694 2.602986039977014 
0.9956437029893155 2.1440032998867142 1.6925377147920864 
2.0066834192898755 1.604829137360349 1.2848442211566615 
4.007920724428406 1.9374681032660133 1.5432036846094912 
0.2512300719627654 2.933270818532243 2.328369088250407 
1.5015642615773024 2.8099415789175075 2.221907137358076 
0.007937798552885464 3.365663440939773 2.637246430386887 
3.2591176418802217 0.05370782659678755 0.06514751585793692 
2.4976776175029567 1.2303250025175025 0.9765346721925051 
5.011310562955092 3.1998415406264415 2.5228121933899836 
6.254213711682006 3.1851393540040474 2.512522317236544 
0.25408642729043235 0.9144473837592083 0.733119439191936 
2.252962728756462 1.6128662006037178 1.2805566301491553 
5.249059072016438 2.2164476920300578 1.7658257822390833 
1.504573178157599 2.4316395720902926 1.9147322655533974 
5.254624869543941 3.272540125828706 2.583298097477195 
5.245445676302213 1.2550526029734372 0.9990404992139584 
6.018092579955685 3.1668150788541287 2.4941602965870007 
6.2577151689096535 3.112846119726696 2.448054201664384 
-0.0006245403411389132 0.11103825101682058 0.116289782823649 
2.0127865468905672 2.565633388145 2.0335793420600194 
3.9995757226248703 2.916064244967299 2.295199195739058 
4.765032364907746 3.368243706828586 2.6427966949161807 
3.4952594996538338 0.3980850859753665 0.32490297728604417 
6.00949512769877 3.0107102009354523 2.3764395153713442 
6.498431564720786 0.5917745853449752 0.4782382232921643 
4.510627077423039 3.1608348091193452 2.4927798357328474 
4.000700613694162 2.2333436038756376 1.7786592613106595 
1.010096420239211 1.8223306183941876 1.4608615366649886 
2.4974619978504076 2.028179574957654 1.6049141187718452 
0.2629183664761438 3.4462742071901036 2.636864928231612 
3.9930971414565626 1.4234390573986864 1.1292476154472773 
6.003608915751318 2.5555850074403805 2.025431923395668 
6.015060039069356 2.304960653055572 1.8246672174670482 
5.264379790798357 3.1602002841310113 2.4817897957370767 
2.498758325352864 0.7593021345338018 0.6084749802972119 
0.7516411610581188 2.589999360689521 2.0440564097389937 
6.002628215897059 0.5829485964593434 0.47378293573429314 
2.7591260882962096 1.7784518326049759 1.4148995019563235 
2.7485678814349113 1.1098942334211517 0.9159086674946575 
1.506084982744741 1.0027225924162437 0.8047008224028862 
0.7501811004483055 1.7575569755285887 1.38743078633608 
1.0083655904261069 3.380189002941374 2.6103388366565654 
3.2536046189630574 2.880483697418062 2.2855064812244095 
3.743033767119739 0.7926436553254909 0.6497484319333751 
4.5016660047643375 1.4596358605841555 1.158436898651247 
2.998662611046681 3.093736597561252 2.4423756479919367 
0.5052486318173504 3.1513019995402547 2.491720646702938 
6.253889279809064 2.333261199870076 1.850220306844244 
0.5028619813271705 0.33284019723649094 0.26777713505791534 
1.5071014316050513 3.1776343080043934 2.524445147744952 
3.994565459870666 3.3673973517832203 2.6395549405027765 
2.0065540859961195 1.9480625004093464 1.544312083165422 
1.2571452996182255 2.5417821556205995 2.013480166049437 
2.750692820538115 0.7946461166076297 0.649074622173503 
2.756689493840955 2.6745899832020266 2.115278250948012 
3.505315369110881 2.089354808839812 1.6479552603276646 
5.7550498118781634 1.3697809421712126 1.1054442436547576 
0.5023106968568997 1.3457659441530234 1.0693326880202716 
5.264379790798357 3.1602002841310113 2.4817897957370767 
5.263096701096005 0.6557873210404587 0.5332155311722594 
2.756689493840955 2.6745899832020266 2.115278250948012 
0.7513862869847722 0.2106443328509367 0.17540754373705797 
6.009340315000115 0.712575204320416 0.5803956638760429 
3.7503166852001506 2.7152592261827144 2.1407724208948777 
0.7574720651570823 3.334761785875842 2.62845939025421 
5.752129424416803 0.8427458171276613 0.6814786443293809 
1.0048543224139113 0.6296101744498611 0.5123301298917566 
4.4991879756566675 0.14472462769262495 0.12479228144897864 
0.7651943229512044 1.9892929326142672 1.5770932826194206 
1.7599273062787972 2.9994277793777506 2.3720223049902462 
1.0094543483529717 0.8051021684258575 0.6435529914521426 
5.25954710390588 0.7856114338346925 0.6362144259629212 
2.5043323315299197 3.248903349753153 2.560560237091846 
3.247485232937648 3.318556848573904 2.6330721229526897 
1.0099104444420681 0.125161499010339 0.12672401832628924 
6.246611574394535 2.9323171397722003 2.3257460592952555 
6.00410528931535 2.7529538475906294 2.164317560965079 
2.5047225673381215 0.24641938045665604 0.20317202297193399 
2.247289375769425 3.0189230193336694 2.387760758935049 
0.4923936270342872 0.7582465443034954 0.613403550323938 
1.752857919303581 1.1506475063735206 0.9234838936526013 
4.5064136984601095 3.113733288690535 2.4497866307071794 
2.9868324450616197 2.353524863521106 1.862402467549961 
5.248941920556875 1.30370206085863 1.0419582357882597 
6.003608915751318 2.5555850074403805 2.025431923395668 
2.2405347179683686 2.7982157670378105 2.2187585499386318 
5.757347066378964 1.4989896870116906 1.1866984973676022 
4.755675053206426 0.819218323259435 0.6652006987692192 
3.502841345207461 2.3895091217954483 1.8881153267627184 
3.509476647178474 2.295809800320972 1.807075296647495 
4.516095895870114 1.8348793881725327 1.457508816911569 
2.7514008781706814 0.0883403152629882 0.08595321735061659 
4.501946570802346 0.13489689333525065 0.1242415637195774 
4.756762663635029 1.1660597559027572 0.9374984999533645 
5.502181377169222 1.3300231321376887 1.0638846244644877 
0.26373747190512953 1.638910158940799 1.2980419739962532 
3.2559508229410814 2.737081173960343 2.156046222134003 
5.753090717533622 1.8501002320690838 1.4648918965127649 
3.5119241991950316 0.5785394239228543 0.4708380774611878 
1.2638546403031878 3.1942530672752136 2.5352177578658646 
4.516095895870114 1.8348793881725327 1.457508816911569 
2.762576079962416 0.1153563271671265 0.10844231727619928 
4.511445455028859 0.7367885382308449 0.5998002987405903 
4.001939815961184 1.5723441047701179 1.2536007326217264 
3.246481563249269 0.8663552083942389 0.7031819667083945 
3.503975209639702 2.551488360911475 2.0118676627112424 
5.005889692957565 0.9526338449172511 0.755669527812576 
0.2535807169418347 2.9998307807149653 2.3673340561838145 
0.2621819578687021 0.19713536916687252 0.17662568564570688 
0.740127520303948 2.3977688310325243 1.914525329237255 
0.7477930148997649 1.628163029263257 1.2972547275297655 
5.991869256972373 0.3518656268128257 0.30770963960677516 
5.500121317665141 0.3470762472397656 0.28555079254826815 
4.000712076885871 1.8627035239643686 1.476722960736961 
0.4965281526197748 2.878512137770834 2.2754572707492287 
4.260778598374525 0.7984375682812822 0.6413609211217594 
6.006642587970131 2.9110005815174143 2.3064276960975763 
5.758322473971361 1.8018009403929134 1.4308580097706225 
5.4884503127724935 2.198846835829484 1.7470461517696565 
3.247485232937648 3.318556848573904 2.6330721229526897 
4.24616876827257 2.923890837567272 2.322992446662048 
2.502600650442209 0.77256304490003 0.6274591002498847 
6.005247907867364 2.4625131361952692 1.9528393369753465 
1.2472484709843739 0.11023421529111076 0.11013987746248079 
5.994779084421962 1.1427174798410464 0.9092575712923108 
1.5121234154697285 2.5783571224867883 2.029583146958663 
0.2547901766759668 2.3203638707172467 1.8304830261583078 
1.2472484709843739 0.11023421529111076 0.11013987746248079 
3.74604755350162 2.4810120373337243 1.9510852970859462 
3.2567377608697745 2.149564402165351 1.7165106689185603 
4.241209798439132 2.8194159461610084 2.2244182074927226 
2.504957451677249 0.14934823975571138 0.13671066862452824 
0.0065425089748806075 1.213097519544219 0.9656028112117524 
5.989307631805066 0.44728254675493645 0.3722728866197463 
0.24409020030033446 1.190480701738623 0.9537963621388782 
1.7476416342955927 2.4545969629054905 1.9303006883152876 
0.4970259294173917 0.1239905876272421 0.126961497917288 
1.2538747682340332 1.2549286100677253 0.9916945868667048 
3.2471226214171227 1.793727192398378 1.4182285883820789 
5.74702131569458 1.3469279104549767 1.0766717047779457 
4.253579685542311 1.3057003546343204 1.0497992103069098 
6.001514224052392 0.10547227621898411 0.0963944156253128 
2.0113439244094367 1.6401066517539316 1.3124025982719552 
3.266964991131777 1.3092407172762048 1.03191271339811 
4.2534507425258665 2.6837260948412243 2.1202823859122772 
2.5070857232468393 1.4851445236359087 1.1901576329421297 
4.760685983555787 1.2057911667710894 0.9711633421359913 
2.4959248225387434 2.835727251674389 2.2406064908277066 
2.4992914788540017 0.46401398762531265 0.37681366526627463 
4.519708609002025 1.4733756579928996 1.1914863453731195 
5.502677211530956 2.7872259873675684 2.205631183584352 
0.25520900625433984 0.758580641154641 0.6140328063877404 
0.9942627775920554 3.431118541371307 2.6421516815991892 
5.00464695775041 -0.002679989964722109 -0.00023310811844729114 
1.7462629318631635 3.4232886365254247 2.626109277627675 
5.25164504083659 2.84195731759549 2.249925180985353 
2.254350190363617 1.193736132551775 0.9568873403037673 
2.002552369292745 1.459850050109833 1.1708988032464 
0.7544075216653168 1.4739968732990767 1.1677513295717974 
3.004228900048494 1.3456608898324736 1.0789012621309397 
3.74999070555263 0.903697534416162 0.7279290958155379 
3.0014958754223793 1.0844916763223396 0.86966549243921 
3.759861054998292 1.97046341039009 1.5518051887969069 
0.740127520303948 2.3977688310325243 1.914525329237255 
3.0049308705656124 2.928983634230669 2.3093025623604237 
0.7526231513236666 0.3448092438825793 0.276358127289177 
2.260499745295542 1.5511987406602963 1.2269857779700857 
1.248810676910535 1.6131384698479978 1.2793450315798376 
0.005980752206072146 3.310240438299399 2.6091410102222996 
2.9996635648333743 0.3212098517382256 0.27262573474239893 
0.2557982605101743 0.7496416942957602 0.6065850001482603 
6.018092579955685 3.1668150788541287 2.4941602965870007 
1.5065856910815039 3.2027876137111666 2.5207604855539203 
2.5076203282274987 1.3096721616051494 1.0462633702041155 
0.994837221429192 3.147827384695279 2.481106935113943 
5.007977860228624 0.19814378314707262 0.17829575631053557 
3.0014958754223793 1.0844916763223396 0.86966549243921 
1.7587288394145217 2.4415115065014135 1.929525136043827 
0.7574720651570823 3.334761785875842 2.62845939025421 
2.2599687282563448 3.229476825412264 2.5574957589132428 
1.7589558357461301 3.3264908620408193 2.621787161065065 
1.2442811017331512 2.561608959195174 2.01597874161186 
2.252962728756462 1.6128662006037178 1.2805566301491553 
1.002831408688993 2.589673058743495 2.0432380307304445 
5.748497924843115 2.057126181858293 1.6403603841219565 
4.0193893406764065 0.7445837065848291 0.6009144725804567 
4.001939815961184 1.5723441047701179 1.2536007326217264 
1.2427748945129489 0.33853225011443594 0.2854011561306149 
2.003377557522269 1.9076470955704197 1.511043626100018 
6.497531920262387 1.2619722428287 1.0081746908741465 
0.24738833835583768 1.1253531215825994 0.8896877138683675 
0.7522306103091209 0.9558331582268839 0.7731801906277473 
5.757347066378964 1.4989896870116906 1.1866984973676022 
4.758195290962851 3.057468039509679 2.4057404133366416 
2.4998240123586437 2.643518023173627 2.092548704677095 
4.008826755428282 0.5590743051186338 0.4597620776242605 
2.2453533804135986 0.16791435800494794 0.16220868830964577 
3.0071523786405914 1.8031156122734457 1.4294125347201851 
1.507794960871452 0.6890385486453827 0.573473086391631 
1.7588297881555461 3.3360715185299363 2.646605176892566 
0.25708532110690596 0.7981737730324617 0.6445405569933275 
2.247289375769425 3.0189230193336694 2.387760758935049 
5.245678993495106 1.874138527630669 1.4894881808893852 
3.2483821072081964 2.0883858802937647 1.6568579938566 
0.9954872472753556 1.8449982906503926 1.4642201210775796 
4.5097476841046715 3.0944188256455014 2.4463163394702145 
3.7522870388932903 1.6815319996404852 1.3482370553512195 
1.755735575683606 3.2685073177081083 2.5736148645196577 
1.5109539896206516 3.013987422160717 2.3744595516405096 
3.2580009944542154 1.225682530491673 0.9915313536631484 
0.7549854344676981 0.709696219062817 0.5696885114051482 
1.00619428693959 3.1621750839248084 2.504292715932896 
5.248971822764572 2.013431671417488 1.5948989015375103 
1.0030477933933064 2.2823206044656574 1.7994292618918348 
2.5062383448285805 1.3068954218064939 1.0475771807374383 
1.2639469949871647 3.3208428932879372 2.625914555521035 
4.005297360671073 2.195244007705706 1.7434877330246579 
3.749339542941573 2.799791405858731 2.213206234364386 
6.001506242766563 0.5434625718186631 0.44923748219282394 
4.760685983555787 1.2057911667710894 0.9711633421359913 
0.010262831413202923 0.05717422879677799 0.06712407688160224 
0.7489515246526183 2.599661026646984 2.0620334669927334 
6.501660570838429 0.9436961138476266 0.7597642596623302 
4.257118709219623 3.393023501841491 2.636574309488665 
2.25760030574665 0.8926453177530971 0.7139788512683884 
4.253579685542311 1.3057003546343204 1.0497992103069098 
6.509749286943535 2.295950831265433 1.8354082035312822 
1.0112748555039794 2.406105368621546 1.9053739759290762 
3.249438577039193 1.4271421954810262 1.1254548391817043 
0.25086629299337876 2.4406683010058274 1.9426293828336632 
6.251425920637423 1.9857329887133126 1.5643004107798573 
5.508933877564714 1.173497147569088 0.9478944808259298 
3.000170495079926 3.1047481286181657 2.454598570273342 
5.994779084421962 1.1427174798410464 0.9092575712923108 
3.744619041116729 2.2655405149918173 1.7962189474374293 
4.256539089556493 0.04139539482350545 0.048404551653461504 
5.257370781417576 1.3707718073864652 1.1081231165495453 
4.758229366429041 2.52773136256731 1.9996222214840826 
3.748729898533384 3.1437773298302836 2.497172260588209 
2.5145801343341616 1.5808852514961431 1.2627899515051748 
4.257773185405936 0.96686744525114 0.7783328852069684 
1.002831408688993 2.589673058743495 2.0432380307304445 
1.7473183888590713 1.4210636323136365 1.1309503827557565 
6.25511793690591 0.4727046495781019 0.38158352614380886 
2.7538821600755554 1.7953059320846132 1.4261675942647467 
2.4947781201739128 0.24462380187322566 0.21645293993264855 
0.5023106968568997 1.3457659441530234 1.0693326880202716 
2.2488079811473254 0.2292139466114837 0.19666306826605887 
2.5031202677142046 2.6239150554767083 2.080319729779988 
2.7555875353528436 2.5962843008458476 2.0628085693554916 
0.7391350855836345 1.041899025541654 0.8179295637026365 
0.013979921274417254 0.6752793935196948 0.5507592701056573 
3.9995757226248703 2.916064244967299 2.295199195739058 
4.000088107462738 2.7073324333221973 2.1543464107400734 
2.266143030681134 0.014120227880452429 0.029739303393472673 
2.50666005316999 2.476328671795307 1.9509369480669259 
5.500995473873552 2.5933235950207596 2.0654317884980133 
6.247192708387903 0.2841042990481369 0.2409991734593684 
6.001514224052392 0.10547227621898411 0.0963944156253128 
0.7681102353029794 1.1415589768659922 0.9150448721195946 
6.258452401762051 3.0251081903001524 2.3899344610126514 
2.251626649339466 0.8480044551431898 0.66996836763429 
6.018092579955685 3.1668150788541287 2.4941602965870007 
1.7477417051210495 2.7385948013180497 2.1662179807633315 
0.2485504628713142 3.22250222584529 2.542167386569469 
4.758563412219393 3.204654879338148 2.5433446720389883 
2.7591260882962096 1.7784518326049759 1.4148995019563235 
5.2548966642636366 2.7397976158724044 2.1593843011459772 
1.758012269153211 3.0419007160904683 2.4044615769177167 
5.994584237522831 0.030253287520832374 0.0415818035000396 
1.7630970601669655 1.9917707677391783 1.589012422268845 
5.745673622476909 1.8197681729036301 1.4461119083382135 
0.7495907816401027 1.036066908510617 0.8396413452940217 
0.5028619813271705 0.33284019723649094 0.26777713505791534 
