6.002600661277379 3.8201562540438205 0.6197093721362179 
6.747629589370884 5.003159805057087 1.4166634986519295 
3.7538754656209545 2.258154615475026 0.41528530787489765 
0.0020737548299881287 2.4089539339920134 0.31392256134319524 
0.49569564736037697 3.1027753096507693 0.15473166064882385 
6.006514803415947 2.089804790446959 0.5106855410294139 
4.51200704863622 2.1106541422667644 0.49763494535116537 
5.007054238647591 1.1922956444238255 1.1069845823161144 
7.254274199748063 4.88797540397445 1.3305938762050156 
4.2478338236964595 2.680248928999407 0.13281670091594522 
4.514724277189657 5.684825635436636 1.8076603357228507 
4.007147750638659 3.0715388071906364 0.1369001735162628 
5.263385399412112 0.6080788698816189 1.489990048557875 
2.7557096030581794 2.112328881762981 0.5017244417413831 
1.0081780098371782 2.2927663634762965 0.3912436512997204 
6.251356621201713 1.5190941838366827 0.8937575777385967 
5.006635576785245 4.358057536174183 0.9808783029672579 
0.7500082613926949 4.362588430955276 0.9907822643024823 
7.253238546798135 0.8481228093096149 1.3334686288374724 
0.24788022751941496 0.3670756356215869 1.6511783776840607 
1.0131649262420264 5.190977474591715 1.5320216350554148 
5.2489577948407975 0.9431206379243648 1.2646362420838584 
0.997630597211962 1.3500050316530499 1.0061708328635144 
0.251760095808125 3.0432441758871667 0.09906558938143335 
0.25397980749537197 1.1111870938834232 1.1497251192760471 
0.9982607912477985 4.777301282688139 1.2547747894398957 
2.7512542158854356 1.0318698997505402 1.225595406073884 
3.267607396108892 3.9446847680731647 0.7170110719799215 
2.9978202587858616 3.4464765037375233 0.3748111677547285 
0.4961346880430016 0.5944783100120213 1.4914176345854182 
4.259992012650739 2.2523722612665433 0.42065008893198197 
7.248234247856643 1.4215952338605098 0.9613506715864923 
5.497778729749016 4.116634736247604 0.8290659837466404 
7.2569377537161905 0.9373937381380842 1.2851472248942921 
1.2544373713658352 1.3904302790550276 0.9812100512570785 
3.0028193437758253 4.11239497632174 0.8140863128278143 
7.004481406657338 0.8772703194784031 1.306401851916112 
2.261936748682151 3.588366930526842 0.4727145764556111 
6.259058250088393 0.6032829253298811 1.4952242143664483 
5.002289082208431 2.377169601537263 0.3316656382178464 
0.9921731997638416 4.3151316908083475 0.9593787668441569 
5.746474205972921 3.686605357582631 0.5276836235573074 
6.010385072730775 2.1523925190770714 0.4718536422229986 
5.7533043331967075 4.083311347816814 0.8022414347430971 
3.5025832269696253 3.7485858136743313 0.5754595898623133 
3.7461900719294285 0.7898099974514844 1.3688447557757628 
1.7652098105465908 4.667789952154481 1.1757727736650785 
6.754222439140045 1.9850510667155083 0.5820772308898188 
1.261648524973729 0.6680947671799448 1.4456905225586647 
4.258671306521249 4.831289610240389 1.286672336847452 
1.2585131122921935 5.498884505486995 1.7323437919902263 
0.256670561450226 5.643486852742421 1.7933114308542106 
0.5021415128617189 0.19961822159175535 1.7627100838898615 
2.0054241560079964 5.317422548131221 1.6139629774938726 
6.753478829540443 1.5877137805848425 0.8306497564675401 
0.4996000569981474 1.834737064703229 0.6877618562166542 
0.010691807476115166 4.591345188649942 1.131373416823121 
7.259104343433462 5.225666248950772 1.5440914698123749 
4.256140739303317 5.556401723205718 1.7709173771416478 
6.504387515114648 3.1274700506506754 0.1605996654712217 
3.0128282500948744 3.904373939791025 0.670271547044876 
4.757181436849617 2.59707118099956 0.19022791436587352 
1.7466422338612664 3.6591198983454483 0.5217163752887076 
0.256670561450226 5.643486852742421 1.7933114308542106 
6.2553812441018755 3.840794156837055 0.6428723352029849 
3.996447007400765 4.281205070796382 0.9452832792858052 
0.011576641586632339 4.809542437041082 1.2679511808521902 
2.7670190734642075 1.2638673269728107 1.069434218213856 
4.246275450858448 0.30765403752746867 1.7037675681708766 
5.997617768883092 3.4808623764258 0.39959588130120766 
2.2616325182279935 2.2502792936294904 0.4123091516251033 
6.006399325357858 2.1314940710099806 0.49083877008417026 
2.0027712029652585 3.1799668588427346 0.21068863080069586 
6.005796028332466 2.319141723023363 0.369159618003126 
4.008707473926234 5.382448694459375 1.6477342876829102 
2.261936748682151 3.588366930526842 0.4727145764556111 
4.747138725454335 4.155563287642079 0.852417104815609 
3.5089156815708535 0.8117434641004085 1.3571545677233146 
2.4996636329530313 0.19510730203152293 1.7644268892822281 
5.002531153734289 4.948127026484089 1.3761386027663292 
4.0104752364996115 2.318145710278237 0.3805755295793609 
0.7593283392310917 5.180934815673894 1.5139481759871447 
6.006826906607531 1.5100078818161493 0.9009176960542283 
7.257419268974289 0.43543754813908797 1.6086505654712893 
3.998036380199661 4.3325410614910185 0.9617619574177148 
0.25697183506909127 4.36156414984098 0.9804234169565326 
2.5034447949265424 1.101745457385377 1.1765055756417175 
3.9938165193374866 3.478253726442813 0.40117779908252527 
4.752486475947072 3.6950442539898067 0.5433275724738683 
1.4969388322852533 0.4332362290758407 1.6051779638485766 
1.50744362201894 0.7175854925555505 1.4294461887705074 
0.011355354217588605 1.7509200671156613 0.7349587654899925 
4.75766027416421 5.637155395644367 1.8112490882246057 
1.7454061420655986 3.8187647442450166 0.6251131184116855 
0.49372539643109237 2.179633530780665 0.4593340458331815 
1.2513357275981265 1.5912637048672542 0.8408591265522579 
2.7622905291014193 3.8922678911978625 0.6658191431376185 
1.0027516570257466 3.0977424887900202 0.15723118040700473 
6.000165549967586 0.47854592265499607 1.581387402875221 
3.997805343097862 1.430100910680526 0.9530258846919931 
5.270331243564194 3.7684425110586495 0.5981072904411573 
2.998331684259765 1.138901193226229 1.1380224642380172 
6.750218604401762 1.2274230578221985 1.083045210795753 
6.497642741401572 2.3636248372743704 0.34535322734013024 
2.0076005195863966 3.8135326684983974 0.6281499554603509 
3.016678483467622 1.067414865190244 1.1889741599506718 
0.011526068919087383 3.704392588538777 0.5440210820926086 
5.511760982498539 2.4830239658736035 0.25850168127605605 
4.747138725454335 4.155563287642079 0.852417104815609 
1.2400674189629515 0.8371412086575267 1.3413697058154008 
3.4975889033720446 2.0990749898768213 0.5134088523867351 
4.497752724761071 1.808612150580609 0.7041856676471169 
2.752929901998464 4.343806045565517 0.9729619785583176 
3.751485276959801 2.341139115314924 0.3479674118684375 
5.7576697342576795 2.2929759066876105 0.38907438749273293 
4.758489212692631 0.44381779802412297 1.5979492159170776 
6.255894577897877 0.8825364902993176 1.318185957534114 
3.754103186830438 4.198111697154204 0.877792901904626 
0.0057386638983684774 2.4186169391485217 0.3052256668876249 
5.251943703199819 2.2445326876711538 0.41904463236317957 
0.01011540272492275 2.2595387632564323 0.40310607968358325 
3.516053165487688 4.779995495543128 1.254306811880348 
7.003370235660839 0.9437249021075508 1.2788014043902942 
4.747138725454335 4.155563287642079 0.852417104815609 
5.504897522169132 3.4880811383818005 0.4051877915935499 
2.5083567362928645 5.593694302761751 1.7955792855224593 
3.9981742441895802 0.5526877892696107 1.530963529020781 
0.5003848998481475 3.8441895363449743 0.6455422280312136 
2.2616325182279935 2.2502792936294904 0.4123091516251033 
3.516053165487688 4.779995495543128 1.254306811880348 
6.514641387008856 4.067483354734292 0.7903404191039503 
0.2507079072784711 5.469909486768615 1.7195188384124827 
5.254203857194616 2.1372796254460416 0.490086255233627 
1.5047876262545676 4.227522471685524 0.8907565039784577 
2.754026012957975 3.624151507069305 0.4899336458115203 
2.259584126239901 1.0671340487333005 1.1882290630073502 
7.261869205471129 1.3890414935565307 0.9810368965310574 
3.750201889918969 5.579250620899776 1.787976698243482 
5.499246425780672 1.614805456984076 0.8188620481604293 
5.752579186155844 4.441901371442706 1.043238289438546 
1.7473006123531514 0.4672180718321222 1.5933639800421648 
7.25722952952451 2.8890297462350585 0.030327623695449696 
2.2553452800134064 0.42614165792798736 1.613367906696878 
2.515083124440002 3.167105450203205 0.19648985511852143 
0.7475283286402957 2.6872468894699733 0.1333911830080564 
3.267607396108892 3.9446847680731647 0.7170110719799215 
2.5112714593138987 4.770423478609015 1.2545758142535117 
5.006875157770942 3.238036438174186 0.2348948158944177 
0.5032482485636178 0.3071836504084688 1.7033135094895264 
4.001566373232045 5.701467822798671 1.8048066083981844 
4.0111110350877945 3.697634755311072 0.5361611244115032 
3.260538681877428 3.4745734564240474 0.4083678605734784 
3.257115729090818 0.8021799821264288 1.3678407135937962 
6.002416545485123 4.574781147929257 1.120641053595777 
2.999838510585633 0.38922563047844694 1.6353693239212952 
6.757080645604058 5.261803682248406 1.578494108656086 
6.251148180694466 2.68355731656595 0.12885556279126154 
4.25722235324167 0.4771727002886795 1.5843050650060317 
3.761075997351961 0.18012573767786813 1.7818439796859304 
6.742352071413379 3.642835231330667 0.5185685467259614 
4.011201311976798 3.7013238955175027 0.5412684755833171 
0.24607194215579048 2.870864180481179 0.0023375771973386523 
0.251760095808125 3.0432441758871667 0.09906558938143335 
5.749285173080549 5.144348373437985 1.5062305509988976 
3.9957253614067563 4.625106456316991 1.1487132854943316 
6.262537065919887 1.6846194428297607 0.7954893182764193 
1.4982525303158147 3.6369412554764247 0.49999389442061537 
3.248479143128187 2.162608082140176 0.4657003431459057 
3.7461900719294285 0.7898099974514844 1.3688447557757628 
5.505807815274666 3.2570684021772625 0.2565150811580741 
1.4891181383521412 5.545858559768139 1.760502393098421 
0.2594832687380911 1.2780701065628253 1.0437401703331344 
6.754411622095568 4.453027213744261 1.0451018805775336 
1.7474641692002104 0.8461978736549086 1.331436929095414 
7.0079346604090675 3.209526690872811 0.22779413900713177 
4.510064041222611 3.1476120397231746 0.18546701887864303 
0.2431400986275414 0.5532773977055323 1.523616021787279 
0.7567993124184834 2.364327990055862 0.3293005971875856 
7.014888385331118 5.42672362448132 1.6782595595162104 
0.7567993124184834 2.364327990055862 0.3293005971875856 
6.999027868423596 2.664479667138643 0.13629332102331412 
4.503193636911932 4.32337600243012 0.9566184840944653 
2.006065704975292 3.0147895663687927 0.08945757504009458 
3.9988422738427136 4.215710210212869 0.8829052029208498 
0.5036432551601798 1.944376098141478 0.6059432777416573 
6.497642741401572 2.3636248372743704 0.34535322734013024 
6.5054562404273355 0.8233454422533372 1.3502158315347235 
6.504765009102785 5.016958187936296 1.4109110557967568 
1.0145919162931576 3.670045187641906 0.5274227921988786 
6.756256283432548 2.75867140088436 0.07814045405815054 
6.745284193279913 1.2181705849355322 1.0900086098254416 
2.5004160689976525 5.6882617737440055 1.8178098198581023 
6.002296379764739 1.1816926733527824 1.1143806045412528 
3.0101718540505313 4.3319424947342 0.963335123044193 
2.497553762679675 1.102366601429343 1.177072344556726 
4.258671306521249 4.831289610240389 1.286672336847452 
5.7533043331967075 4.083311347816814 0.8022414347430971 
5.994525021255049 1.343016736890824 1.0140624759223862 
6.753478829540443 1.5877137805848425 0.8306497564675401 
2.0141394701116964 4.584446509012566 1.133022953155875 
6.248355638227034 3.5968336519158104 0.48032382503900595 
2.758022296216448 3.2059731486099143 0.23056245751984425 
4.753962371269284 5.624012786206223 1.8120236623736963 
4.507209043371797 0.33580452314308046 1.6641433964684034 
0.011355354217588605 1.7509200671156613 0.7349587654899925 
0.5017539698888103 1.9126863926906723 0.6437821041811679 
6.0045319377973705 1.984334971745798 0.5956616959334992 
3.5077729907484767 1.7445930618810985 0.7523503430942633 
6.260893769331544 0.2716678698810691 1.708339412342368 
1.0105195281157757 4.386457675001796 0.9980335477724965 
5.499382315329545 2.890879073350799 0.017767542322340128 
2.754650808787138 5.441066027812919 1.697706607937004 
6.745284193279913 1.2181705849355322 1.0900086098254416 
4.507116117706878 5.637238484062791 1.8131463664939371 
7.004481406657338 0.8772703194784031 1.306401851916112 
6.000986751469903 4.44541057736981 1.0376861789307537 
5.5000468386225245 5.355591497208844 1.6334429823935936 
4.509037075734092 1.2355624247874148 1.0822901575228363 
5.7552536081794745 5.7196418358929 1.8728203670264825 
4.011373118028049 3.612745470760344 0.48202876074319684 
0.24524411477066527 3.974376341894597 0.7156352993234526 
6.510149623953539 0.9425939305661027 1.2643353053212718 
1.7473006123531514 0.4672180718321222 1.5933639800421648 
5.010797799614849 0.740627798233009 1.4083416975763716 
1.2515523705827096 4.679679680101247 1.1875858530691683 
7.237983508970058 4.100384812836052 0.815925517164593 
2.5018157506590737 3.254781774009291 0.2566916650853977 
6.7671220730484345 5.217520975829477 1.5468576761514417 
2.257364308689768 3.911891517913193 0.6889982866537369 
1.7559843965330644 0.659982769071838 1.4720779024027082 
6.517009498424944 5.239385339743275 1.5609528855394403 
3.257137280432368 3.254393019043984 0.2567865728576682 
4.504176032203787 2.2335029945717695 0.42577664204142707 
2.0076005195863966 3.8135326684983974 0.6281499554603509 
5.506060023216048 4.795575531608837 1.2716587920337123 
7.004227775939881 0.1899297415884903 1.7644597034554412 
1.5033738647481159 4.026538234656021 0.7677277756025728 
4.255617585347358 4.584610860113438 1.1311712083329064 
2.252145368291612 3.491508544152654 0.40799121600827476 
6.248126076741502 2.9717400625246553 0.06532331618953258 
2.5112714593138987 4.770423478609015 1.2545758142535117 
2.258225796209519 1.9889768320297665 0.5846226070389549 
4.7573471219873635 3.553179954680477 0.44820412425660916 
5.752589971810772 3.644719671345859 0.5059627646712381 
2.253713283067708 2.191237708623702 0.4334141212038086 
6.249075875291044 4.0282934250126905 0.7683588157720925 
6.75575618035487 5.020365255513647 1.4160976518273038 
3.0028193437758253 4.11239497632174 0.8140863128278143 
0.756303629429266 2.1774660115656017 0.4513187503539828 
4.512703196064332 1.2167063728442926 1.1027642949738536 
7.0079346604090675 3.209526690872811 0.22779413900713177 
6.249557154906538 2.746563937441217 0.08871478988354715 
1.254675069499422 1.740792827980663 0.7502622498279653 
7.000555447145366 4.638202023841171 1.168311026152621 
6.745699017688517 4.919417074523419 1.3593163118203535 
3.990054788656279 1.0161503938389784 1.2229689522576221 
5.0003212388798355 5.4679235580325685 1.7108450434890452 
6.2645083988772665 4.476795753208618 1.0525405095930689 
6.503882463295914 3.784161582380985 0.6039848125840865 
1.5027945624764518 4.502600099901033 1.080210604724479 
6.5054562404273355 0.8233454422533372 1.3502158315347235 
5.254357417113561 5.472199089421857 1.7117000008354997 
0.7500082613926949 4.362588430955276 0.9907822643024823 
0.25135690426039603 4.751167930700941 1.2251164379427888 
5.010816510589196 1.6578882385132452 0.8042997429244911 
6.750218604401762 1.2274230578221985 1.083045210795753 
1.0014493418827826 3.5121678084238357 0.4251392666398312 
5.0090924813337425 4.758390343944374 1.2487455960722589 
4.263081671807557 1.8088545989059295 0.7111028567975971 
6.50538607815831 5.440794316457875 1.6937050620397427 
3.7547611649803874 4.799401215005853 1.2713645569651923 
4.764859605880107 5.226910263485427 1.5433831361701063 
6.9939651506278935 1.4990680785862651 0.9121683206927904 
6.24849149184703 4.865806996104095 1.322177887874842 
1.259111688701624 1.5675821860278571 0.8736631037238615 
3.0051637753331044 0.8061409576214863 1.3672785400553527 
0.9954137967660566 0.2653018134435033 1.7086964207988218 
1.7587567944919786 4.025503888768044 0.7653244217844436 
4.997434409526948 0.9894882626183783 1.2374402836317866 
2.5081223530461707 1.671137939527116 0.7896498576005531 
4.51200704863622 2.1106541422667644 0.49763494535116537 
4.756756167801084 2.566720935957688 0.20188835696938479 
1.7540897643738635 2.3478354488153754 0.3531255724810219 
6.009301663524986 4.062118519583132 0.7876549675451343 
0.2567382109798375 5.272329222318004 1.577054556401201 
0.7500082613926949 4.362588430955276 0.9907822643024823 
3.254598259615967 3.0157458859353907 0.09828975968698986 
4.246275450858448 0.30765403752746867 1.7037675681708766 
5.754469436789855 5.473130012678376 1.7283521703289013 
1.51250063557602 2.363454032055714 0.3343508543526539 
0.7477141467379883 2.286921017039626 0.38546422732899294 
1.001098070285129 2.9656136055740325 0.0685025637588636 
0.020538284332101177 0.3130859078491395 1.698190726688116 
4.766966743734026 3.5969698189031853 0.48624612501631076 
3.99760013744015 2.4369106882291227 0.2963425588785382 
1.750159241643937 1.8092303466601427 0.712059421058501 
3.4982890185933835 5.088412814137492 1.4596496280703606 
4.242227570745839 4.837151238953243 1.3053969289530933 
3.255276188592932 3.045036749593705 0.11624312118450555 
0.2567382109798375 5.272329222318004 1.577054556401201 
6.993213701269645 0.889580206199355 1.3129587016511446 
2.0027712029652585 3.1799668588427346 0.21068863080069586 
4.748356214271708 4.639326923029416 1.1703594173122656 
3.500174469500623 4.377500610396188 0.9859443833666894 
3.248479143128187 2.162608082140176 0.4657003431459057 
0.7519232249324461 0.8632444457308788 1.3228572784572052 
2.257364308689768 3.911891517913193 0.6889982866537369 
0.7593283392310917 5.180934815673894 1.5139481759871447 
5.006875157770942 3.238036438174186 0.2348948158944177 
1.2590305140871771 4.434952000155536 1.033445669497988 
6.513225662022048 4.451073113313231 1.043851188173119 
3.7461900719294285 0.7898099974514844 1.3688447557757628 
6.512144307887947 4.1201511799910415 0.8284725869066779 
0.7472967691005646 4.357049498085218 0.9856366048261377 
2.4928616579950416 0.5542627762776481 1.5356377663951113 
3.758430641825752 4.446376376013712 1.0485201503231096 
1.7614913348374714 2.964218619708931 0.0665464296889969 
5.749010801775788 2.325967048700842 0.375153128714487 
4.5071104645447955 0.23017678226119187 1.7347509218610464 
5.510428842036112 4.865912911063992 1.328309993712943 
1.0063151449216448 3.81066703208497 0.6093615588886994 
6.2527768348291675 2.612890957372679 0.17990610598733353 
6.99751243217725 1.5081394022904246 0.9002110978526313 
3.9983937970197796 4.792969029626997 1.2602659368343392 
6.249557154906538 2.746563937441217 0.08871478988354715 
4.762034712115743 3.9745252877109314 0.7250116651929129 
5.504887270152431 2.626253290675886 0.16798824002359633 
5.500014467335209 4.224588556229609 0.8983930331241343 
3.991568085929855 3.7231877362167562 0.5597349792119407 
2.999263303018416 5.007696644232137 1.4103634665656493 
5.51315356526408 4.977634022660672 1.3814319714169059 
1.0105195281157757 4.386457675001796 0.9980335477724965 
5.742283057483153 1.8006280188702954 0.7138344631123983 
2.2623666703345795 2.7206284805460244 0.11236200712051644 
3.500197390606887 5.111921889690363 1.4939184240838723 
0.0022905902055377044 0.09623642704537484 1.7843035489631207 
2.758022296216448 3.2059731486099143 0.23056245751984425 
5.255765912049568 2.011646971695401 0.5705682203818583 
2.753863889952145 0.7516000468385319 1.3882247668827379 
5.7552536081794745 5.7196418358929 1.8728203670264825 
2.7605713343205736 3.465235352863646 0.4032325356023004 
4.260590273823475 4.539865256278099 1.0972683383221593 
0.7618665602402609 3.935592189341255 0.6965906740032287 
1.7566399499492507 1.1073549281158108 1.159365662698672 
3.5023966835246614 3.4776093977735236 0.4059160759816549 
4.007856220236628 1.9958790249640848 0.5823789359642435 
5.74643968563128 0.8536099605800774 1.3349754153588909 
3.7553474991968567 1.1274729875887999 1.1584211367498094 
5.7552536081794745 5.7196418358929 1.8728203670264825 
3.2424304612328143 1.6820667034869374 0.782553606863204 
6.497642741401572 2.3636248372743704 0.34535322734013024 
2.009400550894718 0.3920447420670725 1.6516326549481446 
5.241816586587429 2.7568345609931084 0.08689999279913696 
2.7605713343205736 3.465235352863646 0.4032325356023004 
4.252762645137863 2.305440858399926 0.37253030682431243 
7.007041720046406 2.6634322623966256 0.14637883603882174 
3.995041493228257 2.3530769634684305 0.3397439758961366 
3.009695689955649 5.009517524660964 1.411864483660062 
6.009951557578337 1.4908686248925405 0.9147114448982677 
7.01368608186503 3.059219923524527 0.12089417478511072 
2.259070834119106 4.568573671716494 1.1209133702019205 
1.248139039742386 0.19120338211822024 1.7720361699852016 
0.011576641586632339 4.809542437041082 1.2679511808521902 
2.7512542158854356 1.0318698997505402 1.225595406073884 
3.0038069381048937 2.1498555327682896 0.48231834129466267 
4.258154387263806 3.214872211149519 0.22773468570894678 
2.2477036328050044 5.298871431267078 1.5953122882089947 
5.5000468386225245 5.355591497208844 1.6334429823935936 
1.2548978908831188 2.531368824957742 0.22955565238119038 
5.233978498521443 0.4015456094259261 1.6209106457503928 
1.0014493418827826 3.5121678084238357 0.4251392666398312 
1.9935638008357348 2.358287563280081 0.33810602720604843 
2.992171972801479 0.06946397061021203 1.8116471901252746 
5.250448674012111 2.347089197888309 0.33947071541754686 
4.255409055939001 5.64198454864271 1.8096609017514358 
6.756395565603694 2.250296300673105 0.40416656791510724 
5.753905307318931 2.875788960313159 0.010384442724180609 
0.5070419269590354 4.38551514742371 0.9977899438874605 
3.247382748825602 4.68583088829558 1.1954709800112402 
6.504387515114648 3.1274700506506754 0.1605996654712217 
3.267607396108892 3.9446847680731647 0.7170110719799215 
5.501818138812076 2.5352575812522375 0.21977589948528234 
0.5007258641872124 1.0398712434117412 1.2079994068678976 
6.749327723107459 1.5441520681267105 0.880483030133462 
7.2447355264090145 1.5196160772661162 0.8945056022286317 
3.2562387755747824 5.266280026729714 1.5785188953090024 
0.4996000569981474 1.834737064703229 0.6877618562166542 
4.751332291136648 1.1789581582842366 1.1246941464883011 
0.5007809625923603 2.134614908449716 0.501266509005796 
1.2548978908831188 2.531368824957742 0.22955565238119038 
3.5033726231600384 2.394257458543831 0.3256325985813069 
5.0156661274664005 0.7275033207869891 1.4096470228611533 
6.24458437875315 2.587921859879255 0.18194112356186506 
2.2555569010247827 4.151919742975252 0.8548482446110054 
3.9929926094727426 4.635817539206089 1.1576827066709297 
5.746474205972921 3.686605357582631 0.5276836235573074 
0.4996000569981474 1.834737064703229 0.6877618562166542 
6.505317017576263 1.717841710217181 0.7671726775489325 
4.752685225945141 5.141683191280479 1.499686085215131 
3.002748284102843 0.12716460502343138 1.8017537437815867 
6.75575618035487 5.020365255513647 1.4160976518273038 
5.250976036749006 0.7635387121615506 1.3932149903049276 
1.4990527511235725 1.5605406223919673 0.8739924275257075 
6.510149623953539 0.9425939305661027 1.2643353053212718 
2.511101219916328 2.4716602281778877 0.2698486717622438 
2.744127759544177 1.923978467191721 0.6344059571246079 
0.7618665602402609 3.935592189341255 0.6965906740032287 
1.749671299836211 2.3223357426031637 0.36642390077103343 
1.261392531204062 1.949629590165173 0.6067969869852011 
4.005090258776646 2.2115720214349617 0.43401517466406486 
4.007147750638659 3.0715388071906364 0.1369001735162628 
3.2626886592195707 4.163345333151346 0.8487294703569659 
6.999367362264315 2.494168746640263 0.25777839559039295 
3.0141130929260522 3.289812348492354 0.2748463020961298 
0.2539112533843979 0.145871092169353 1.7901815326936554 
4.262115329531114 2.4269885626507 0.2882750205544247 
1.4990527511235725 1.5605406223919673 0.8739924275257075 
1.00130960588232 2.6343816299565863 0.16747277019558285 
0.004971663821538368 3.7830687941461236 0.6022103169629768 
7.257419268974289 0.43543754813908797 1.6086505654712893 
5.255765912049568 2.011646971695401 0.5705682203818583 
4.503193636911932 4.32337600243012 0.9566184840944653 
6.250112497345529 0.04082268513473726 1.805578486640223 
1.7559843965330644 0.659982769071838 1.4720779024027082 
6.506801211654394 3.625436401187174 0.5105926327728619 
6.741088028658431 4.725059170793967 1.2194702439095666 
2.0001007260503734 3.1595632033816305 0.187079273904245 
6.2527768348291675 2.612890957372679 0.17990610598733353 
2.997728862620422 1.0992587927726645 1.1685486310641509 
4.250368085769332 3.432904702166497 0.37352071917314655 
5.760492786513438 0.8575645081941188 1.3239086573286318 
5.243308468734215 1.4054272264126264 0.9716684987047964 
5.995539097306586 0.9288238416567525 1.2846903246296442 
0.7472967691005646 4.357049498085218 0.9856366048261377 
3.5031167486959744 1.6912879732600492 0.7842349632522301 
5.744254079963507 1.143401482748128 1.1454471714350385 
6.994406283591087 1.6121861498726107 0.8452553185810993 
2.5004160689976525 5.6882617737440055 1.8178098198581023 
1.0010572053992248 1.0363185380405964 1.2184045643482377 
6.2582423062337815 1.8410810375287818 0.6736453914423164 
7.248234247856643 1.4215952338605098 0.9613506715864923 
3.5152299582542685 2.2368130455187996 0.41358569556809316 
1.502647146484416 1.2607248032113627 1.0627000320044224 
5.753216159847038 3.809052555079497 0.6229834599483862 
5.995539097306586 0.9288238416567525 1.2846903246296442 
0.7504190850408607 4.351132457414267 0.9785117332805776 
5.513010674786839 3.8743189917712635 0.664432268571608 
6.504927853795018 4.867204822662699 1.3210227546443845 
5.501249084026351 0.9904006395587391 1.237450681751457 
6.002600661277379 3.8201562540438205 0.6197093721362179 
4.754421410105555 2.003139110605225 0.574904596200887 
3.2530073301498375 5.125993939325661 1.48287373935649 
3.5029167061082416 1.1019468273596895 1.182098522129906 
0.5096517230502524 1.898404532522182 0.6430742487379619 
5.0088872390062935 5.664520412662821 1.8050733880624292 
1.9972432593819147 4.315094023270794 0.956398763656085 
0.5030051900014798 5.298241265815698 1.5956550522890325 
4.756756167801084 2.566720935957688 0.20188835696938479 
3.016678483467622 1.067414865190244 1.1889741599506718 
1.261648524973729 0.6680947671799448 1.4456905225586647 
6.500534165264436 0.648346286922758 1.4818769028648173 
6.754222439140045 1.9850510667155083 0.5820772308898188 
0.5112219860798697 4.915905388836825 1.349325686195428 
5.760492786513438 0.8575645081941188 1.3239086573286318 
0.7617376163065956 2.70644573235718 0.11183854975575509 
1.0105195281157757 4.386457675001796 0.9980335477724965 
4.0026276087160255 1.056788716246857 1.2105296578833773 
5.746373525466205 1.7300112283673852 0.7636197933024481 
5.995539097306586 0.9288238416567525 1.2846903246296442 
1.7635836289862312 0.8437306772065598 1.3381410562064973 
5.511141403969134 0.9763437503338401 1.251324292604973 
0.49922486291627294 5.137679694515768 1.4959876499011857 
3.748726448076672 0.0894763596448843 1.7858173553578343 
0.9921731997638416 4.3151316908083475 0.9593787668441569 
2.997728862620422 1.0992587927726645 1.1685486310641509 
4.251980336302563 5.631473980202164 1.7930609061928993 
0.7509557518845342 4.1069369094543084 0.8252152687825322 
3.5054369173492077 3.0986309038813658 0.15024804673197764 
0.5007809625923603 2.134614908449716 0.501266509005796 
1.2455020501938203 5.437405769649056 1.6882735176613528 
3.0114173822037125 1.4628954274467056 0.9294741147328887 
0.4961346880430016 0.5944783100120213 1.4914176345854182 
3.2594147334647476 2.4196351268903284 0.28910905535681247 
4.007147750638659 3.0715388071906364 0.1369001735162628 
4.503193636911932 4.32337600243012 0.9566184840944653 
6.2458644822744755 0.5790228630015699 1.5011834581735912 
6.75932941274153 1.8888173676693327 0.6523143309332848 
3.003050877338598 4.172821913235936 0.8555210664870196 
0.5113460355802142 0.16193069955611933 1.7801733479975093 
3.9984657263783916 3.8658123976506844 0.6581740830623 
4.003281022595533 0.23663865277385304 1.7453737094163682 
2.7510861635003265 5.71625613741959 1.8701542637875217 
3.0075919985027504 4.942657402562659 1.3703555085192944 
3.2491132123287945 3.480157855789999 0.4050175389712746 
5.99864445363564 3.0295824577397577 0.09751536186450609 
7.244193324941228 4.312711849567855 0.9561887239512035 
1.2485008185523074 1.8669607867992344 0.6635882493255405 
4.252038596631718 3.237580834540074 0.23868120993928196 
6.513225662022048 4.451073113313231 1.043851188173119 
6.5072738244204285 4.005953985944756 0.7557377227216793 
1.5063905080507685 3.104167056172514 0.14808558404429414 
2.0070649200464805 1.3054370433909337 1.0347907156489529 
1.2515523705827096 4.679679680101247 1.1875858530691683 
4.752685225945141 5.141683191280479 1.499686085215131 
2.7512542158854356 1.0318698997505402 1.225595406073884 
0.9985710126960825 2.8827863441765245 0.01893993065106458 
4.507258701885343 1.666117414030221 0.7926883033893583 
6.7494039916705875 4.239351341436106 0.9121720899868461 
4.00755971412281 3.370279053787268 0.3327341763683647 
1.5057093987200398 3.3341838503191825 0.3030434669066564 
4.757181436849617 2.59707118099956 0.19022791436587352 
4.746973776781975 4.428411940809381 1.0331783794910525 
5.752589971810772 3.644719671345859 0.5059627646712381 
0.5070419269590354 4.38551514742371 0.9977899438874605 
4.2618917901770015 5.482084476039975 1.727528465817778 
7.256563476274105 3.3837203501076396 0.34933506499711553 
1.4899243728927003 0.7160606319852441 1.437815603860689 
5.013558280206561 3.974258708625966 0.7309565440098015 
6.2602477460579955 2.5239983836986415 0.24170335965081682 
2.763480044592831 3.770552769850104 0.5990991046086481 
5.505695428611421 2.492328350225201 0.2570966355957808 
5.510428842036112 4.865912911063992 1.328309993712943 
6.266125398406954 5.133567527813596 1.483793926379884 
7.254274199748063 4.88797540397445 1.3305938762050156 
2.0062064333004233 3.8249197412260414 0.6285537033414071 
5.250417990977747 0.002201276590097042 1.8984403247973396 
3.2510403476274097 0.14408130004451675 1.8075043648340996 
1.0068730361134584 3.822519672747936 0.6395087981649686 
4.5071104645447955 0.23017678226119187 1.7347509218610464 
5.256338735749777 5.115828810746718 1.4814200890128104 
3.2562387755747824 5.266280026729714 1.5785188953090024 
4.764859605880107 5.226910263485427 1.5433831361701063 
2.7530325943221414 0.8222494918971023 1.3546110701550407 
1.254701730055492 4.936035576286403 1.3624428952269059 
0.2565090873204488 1.0145752462332787 1.2229153286684358 
6.993213701269645 0.889580206199355 1.3129587016511446 
2.2553452800134064 0.42614165792798736 1.613367906696878 
1.2544373713658352 1.3904302790550276 0.9812100512570785 
1.2478283897591187 2.6452603416140335 0.14607647250603956 
2.4933894857427434 3.4446282586027612 0.38473598505436046 
3.5152299582542685 2.2368130455187996 0.41358569556809316 
0.49570024041392474 5.617784971197734 1.794407417349798 
0.754029533473426 0.1880915928711862 1.7676427279272093 
6.504927853795018 4.867204822662699 1.3210227546443845 
3.7604205147056766 5.128927887749368 1.4806151077859535 
0.24524411477066527 3.974376341894597 0.7156352993234526 
1.5027945624764518 4.502600099901033 1.080210604724479 
7.009915635414598 3.5795584428682763 0.4585965529695445 
5.766953817531579 2.905335452348832 0.02959811873329329 
5.510428842036112 4.865912911063992 1.328309993712943 
2.2543466826701257 0.8300949268541691 1.3445688705847414 
4.766966743734026 3.5969698189031853 0.48624612501631076 
2.0075192506367423 1.5563117697097344 0.8663705548474092 
4.007147750638659 3.0715388071906364 0.1369001735162628 
6.259861640706393 5.497904610784378 1.7337346194307832 
5.754884629272513 4.954749808789991 1.376607578708283 
1.2502500781512491 3.7190458519446183 0.5659605186043257 
2.7557096030581794 2.112328881762981 0.5017244417413831 
6.75932941274153 1.8888173676693327 0.6523143309332848 
6.2602477460579955 2.5239983836986415 0.24170335965081682 
5.499785425956297 4.798781030082313 1.2690942178695575 
0.0057386638983684774 2.4186169391485217 0.3052256668876249 
7.264357703648268 4.44223053443902 1.0352025401339564 
3.257137280432368 3.254393019043984 0.2567865728576682 
5.5036812537776 4.1803644297101785 0.8649276991760119 
2.0054241560079964 5.317422548131221 1.6139629774938726 
6.257687565193893 4.057978863061674 0.7877060465889612 
2.257902185520222 5.625520183201817 1.8142564077839833 
4.24704275930942 0.6746910649822402 1.443072157761392 
5.7533043331967075 4.083311347816814 0.8022414347430971 
4.755803989212084 3.811488960776636 0.6328394788462114 
5.500014467335209 4.224588556229609 0.8983930331241343 
5.513010674786839 3.8743189917712635 0.664432268571608 
3.7538754656209545 2.258154615475026 0.41528530787489765 
6.505020975291666 1.3989328706846895 0.9929151208219661 
4.254040976026622 4.035006124172384 0.769446999649024 
3.9984269104587953 4.4580633989228025 1.0403610899399647 
3.0101718540505313 4.3319424947342 0.963335123044193 
5.497778729749016 4.116634736247604 0.8290659837466404 
0.2457313119267373 0.9253176471830371 1.2873003342134013 
5.49927230776437 3.029039719800919 0.11394258650963093 
0.010691807476115166 4.591345188649942 1.131373416823121 
7.009915635414598 3.5795584428682763 0.4585965529695445 
4.516175103188068 3.7961436059757694 0.6105001091207215 
0.25397980749537197 1.1111870938834232 1.1497251192760471 
2.992171972801479 0.06946397061021203 1.8116471901252746 
2.501286854681557 5.297268133421191 1.6033931853359804 
1.0097498610890123 2.9547774908473188 0.06007281051041333 
6.254137227698245 2.345270933329623 0.3551812580214411 
0.0046047461911464605 0.7643780764128681 1.3872019181255189 
6.262537065919887 1.6846194428297607 0.7954893182764193 
4.747138725454335 4.155563287642079 0.852417104815609 
4.251550093040881 4.069494758149895 0.7939081780417319 
2.7547460126954637 3.1311505749807944 0.16728868348103443 
6.247933006752026 4.107409337910373 0.8213649391751802 
2.0055104399584884 1.7747037113047708 0.7265300271148464 
0.9954137967660566 0.2653018134435033 1.7086964207988218 
1.2557656269168809 5.396572557058253 1.6576181668208438 
6.99751243217725 1.5081394022904246 0.9002110978526313 
3.7448296036855298 0.8028593817279845 1.3500752807029652 
2.5112714593138987 4.770423478609015 1.2545758142535117 
5.503084414601227 0.6631698363032557 1.4594714068874186 
6.75575618035487 5.020365255513647 1.4160976518273038 
1.9986876278965524 0.5983426559613614 1.4974440126028914 
6.260893769331544 0.2716678698810691 1.708339412342368 
6.998220082439801 5.520899393915697 1.7422744014657263 
1.7587567944919786 4.025503888768044 0.7653244217844436 
1.9935638008357348 2.358287563280081 0.33810602720604843 
1.245606607161895 2.060732406162196 0.5407175790576432 
0.24665991319222286 0.9379062991038752 1.2728358531298334 
3.0035236457548278 2.971737539541631 0.05932284168024277 
2.754056799014991 3.881891113383488 0.6658555607230122 
7.004481406657338 0.8772703194784031 1.306401851916112 
7.260109938767832 4.224224682645698 0.8726950898954978 
0.24959328261085537 5.09884869003697 1.4703749138500073 
4.256140739303317 5.556401723205718 1.7709173771416478 
0.9949242627174258 2.4296464014846837 0.2986584826530231 
5.263137956626641 3.6135711176215746 0.4916896516713918 
5.260422995288237 1.276191387140107 1.06350185419431 
0.2464890815373828 2.365098964584531 0.34898721390891413 
2.5032576328466054 1.2933288750185983 1.0508036840931925 
5.250976036749006 0.7635387121615506 1.3932149903049276 
3.257115729090818 0.8021799821264288 1.3678407135937962 
3.7633931567042147 4.812635715749848 1.2784008866609256 
4.996712269610847 1.314133903132366 1.0332922944569043 
7.006598894254537 4.990956405579172 1.3980209547073637 
3.4983593337128736 1.6471733401945337 0.8107491821357548 
3.9984657263783916 3.8658123976506844 0.6581740830623 
5.010034480983422 2.0984938183127135 0.5144829683424971 
5.511141403969134 0.9763437503338401 1.251324292604973 
6.7576337910332285 5.3120319611090565 1.6159969950918158 
0.7530488492881661 1.17548597858163 1.1274979784795467 
2.7557420839677835 2.917997423399301 0.03655611141782089 
1.4969388322852533 0.4332362290758407 1.6051779638485766 
0.7567993124184834 2.364327990055862 0.3293005971875856 
3.5054194367450555 4.535587838627884 1.102981398965696 
3.9929926094727426 4.635817539206089 1.1576827066709297 
5.257544794528126 1.98286125383019 0.5939480145680223 
6.505020975291666 1.3989328706846895 0.9929151208219661 
7.259104343433462 5.225666248950772 1.5440914698123749 
3.7538754656209545 2.258154615475026 0.41528530787489765 
1.7540897643738635 2.3478354488153754 0.3531255724810219 
5.497710337038837 1.369429618750558 0.9932954516585827 
4.242227570745839 4.837151238953243 1.3053969289530933 
6.505317017576263 1.717841710217181 0.7671726775489325 
3.998036380199661 4.3325410614910185 0.9617619574177148 
7.2643800297514005 0.7815409249646503 1.3730291353864903 
1.2542850482647658 0.27811609172596524 1.7101023335753835 
2.0075192506367423 1.5563117697097344 0.8663705548474092 
6.251148180694466 2.68355731656595 0.12885556279126154 
2.51359693900875 5.333918579891605 1.6154922687604898 
4.253934982021424 1.4961512970884183 0.9073439991645146 
1.9972432593819147 4.315094023270794 0.956398763656085 
0.754029533473426 0.1880915928711862 1.7676427279272093 
3.013984656210118 4.53520977549198 1.108496547202893 
2.0045279609363686 0.34663850548762887 1.646111936394181 
1.5054664169296845 1.1730871343261218 1.121493203277603 
0.23966545408118575 0.34594368767551853 1.660164724838081 
5.006635576785245 4.358057536174183 0.9808783029672579 
6.003841889249883 4.690305380650496 1.1973252561668775 
1.0145919162931576 3.670045187641906 0.5274227921988786 
6.002416545485123 4.574781147929257 1.120641053595777 
4.996519137771846 0.26289762180890913 1.7208573296975207 
6.500534165264436 0.648346286922758 1.4818769028648173 
0.5113460355802142 0.16193069955611933 1.7801733479975093 
6.500121373064868 2.8362099872685427 0.029911765478831297 
0.0020737548299881287 2.4089539339920134 0.31392256134319524 
1.7567257544144796 5.09576077018218 1.4663678289264175 
4.752685225945141 5.141683191280479 1.499686085215131 
6.255894577897877 0.8825364902993176 1.318185957534114 
6.747629589370884 5.003159805057087 1.4166634986519295 
5.747682893197083 4.135473212540423 0.8291310999599925 
5.744515423481243 5.494374006336283 1.7356509559746938 
0.2565090873204488 1.0145752462332787 1.2229153286684358 
6.265403327067193 2.181915811807392 0.4482028447637775 
0.24959328261085537 5.09884869003697 1.4703749138500073 
1.2458253882739692 0.7143549443941947 1.414032774389745 
6.506801211654394 3.625436401187174 0.5105926327728619 
3.999112286369205 1.0887141247422272 1.1812037094635615 
4.2582313945558665 2.012980914401373 0.5591381855424992 
4.9894137936391285 1.8209386752160992 0.6845911737308723 
3.0028193437758253 4.11239497632174 0.8140863128278143 
2.0028294681474006 1.9547541057704234 0.6067665445312057 
0.004327994494792537 0.26024183191175926 1.7299341535105102 
3.255480534678284 5.655549526361379 1.7935003992565577 
1.261243555003672 2.4312346954943806 0.2902372161926227 
2.7547460126954637 3.1311505749807944 0.16728868348103443 
3.9983937970197796 4.792969029626997 1.2602659368343392 
6.008463944825415 4.5387769236174815 1.078357943384827 
6.497642741401572 2.3636248372743704 0.34535322734013024 
6.745284193279913 1.2181705849355322 1.0900086098254416 
5.500014467335209 4.224588556229609 0.8983930331241343 
3.747917644722734 1.4765519263516118 0.9192382013722367 
6.99187284590099 1.8362089489927769 0.6880634271569386 
3.999112286369205 1.0887141247422272 1.1812037094635615 
2.741883680837021 2.0648930832064583 0.538409540710596 
5.257919505285201 4.812295944469792 1.284397211257407 
3.005903068462164 1.7203298108345753 0.7580713316342075 
5.010932274340063 4.682636023514301 1.2014882689137043 
0.011526068919087383 3.704392588538777 0.5440210820926086 
5.008082344958299 0.4732696089512454 1.5838974960540293 
0.7607832120116029 4.978049829849241 1.3832436930023477 
7.004481406657338 0.8772703194784031 1.306401851916112 
0.7464025055715648 4.243143733722847 0.9106219087800588 
6.255894577897877 0.8825364902993176 1.318185957534114 
6.505917052159435 3.3074574511273815 0.2840193258420206 
6.7576337910332285 5.3120319611090565 1.6159969950918158 
4.007856220236628 1.9958790249640848 0.5823789359642435 
4.2582313945558665 2.012980914401373 0.5591381855424992 
6.002600661277379 3.8201562540438205 0.6197093721362179 
7.003370235660839 0.9437249021075508 1.2788014043902942 
0.5032482485636178 0.3071836504084688 1.7033135094895264 
5.002289082208431 2.377169601537263 0.3316656382178464 
6.753478829540443 1.5877137805848425 0.8306497564675401 
6.755663367438135 2.0405765321540676 0.5509918657513898 
4.503102650078913 2.344912564910571 0.35544530906139166 
1.4929103032816273 3.7267427854524198 0.5684476627380524 
2.2553452800134064 0.42614165792798736 1.613367906696878 
1.2592561265431372 4.838464736762893 1.295435576990335 
5.006931320099781 0.6656747736494754 1.459087304961465 
6.003178687582249 0.4605134362025491 1.5946640707425266 
2.2504137744316965 4.797165940450625 1.2804778951686158 
4.003482903635673 1.221711989288624 1.0925637791662999 
7.248423615388016 2.7204140940858705 0.10286716460840747 
1.0108026356575015 3.8805145034934982 0.674387728292223 
4.251980336302563 5.631473980202164 1.7930609061928993 
5.7508558097234745 2.0802967653658633 0.5168440194277828 
6.749327723107459 1.5441520681267105 0.880483030133462 
0.2495527086979873 1.2043534199978203 1.098354412255069 
0.0057386638983684774 2.4186169391485217 0.3052256668876249 
2.2426939652774465 5.341237159500248 1.6438709005207228 
1.7473006123531514 0.4672180718321222 1.5933639800421648 
3.254598259615967 3.0157458859353907 0.09828975968698986 
4.756314447004425 0.5081374583091269 1.539497468717602 
0.24895890986074248 0.6274042782055943 1.4780384825178354 
6.516502084251473 3.591900313521885 0.4733397823914317 
6.999027868423596 2.664479667138643 0.13629332102331412 
6.5072738244204285 4.005953985944756 0.7557377227216793 
5.507410886883808 4.085157152082423 0.8082715679789911 
4.258615581948271 5.3195847120156134 1.6208941635037135 
4.001566373232045 5.701467822798671 1.8048066083981844 
4.011201311976798 3.7013238955175027 0.5412684755833171 
3.7569291330748236 4.9582621364698145 1.3724519741520649 
2.009400550894718 0.3920447420670725 1.6516326549481446 
1.4891181383521412 5.545858559768139 1.760502393098421 
0.23966545408118575 0.34594368767551853 1.660164724838081 
7.256815017563789 3.216499727203088 0.22273509766014127 
3.247382748825602 4.68583088829558 1.1954709800112402 
1.7644368945412123 5.596279413649823 1.7963973546335634 
1.7568074138532566 3.1084194986594023 0.164719039071567 
1.0010572053992248 1.0363185380405964 1.2184045643482377 
0.5113460355802142 0.16193069955611933 1.7801733479975093 
1.7535697092182618 3.688238692912428 0.5422816822190628 
5.263594493257013 2.7956943501989047 0.062765622765767 
5.255649859480288 3.7863511880270107 0.6043852782521779 
5.491197823590326 3.6762768739501013 0.5401582533581896 
2.0032020155460555 4.36442098994335 0.9829881115794115 
3.2594147334647476 2.4196351268903284 0.28910905535681247 
2.7537155289151967 1.0958224823212466 1.173573642575764 
2.99225853492463 0.4314802654832371 1.6103874890361165 
5.502739600759607 2.117644880386681 0.49706942482049915 
7.256177326905859 2.985265360943923 0.08129560472319886 
2.259070834119106 4.568573671716494 1.1209133702019205 
4.752685225945141 5.141683191280479 1.499686085215131 
4.253253142280567 3.808221876017052 0.6219605380081736 
1.755205682375573 0.13581564369709984 1.8026423638407878 
7.255300320860161 2.803910341554072 0.04853778097675988 
7.247428932248078 2.917549623381331 0.03051065349838059 
6.251356621201713 1.5190941838366827 0.8937575777385967 
0.24873433953841717 1.923419337334823 0.6254985273458611 
3.246938136800488 5.314543840184147 1.618515864373629 
1.7587567944919786 4.025503888768044 0.7653244217844436 
2.511101219916328 2.4716602281778877 0.2698486717622438 
0.7585964783499383 1.1462673354575725 1.1404684254869588 
1.7644368945412123 5.596279413649823 1.7963973546335634 
6.2553812441018755 3.840794156837055 0.6428723352029849 
0.7585964783499383 1.1462673354575725 1.1404684254869588 
5.744515423481243 5.494374006336283 1.7356509559746938 
0.7550306455343947 1.938708683758059 0.6149289998856124 
3.9967415881026875 0.5214108239422292 1.5456356111201244 
5.7552536081794745 5.7196418358929 1.8728203670264825 
0.2561462187124518 2.3339992433233667 0.35604310101165765 
4.260890358838579 4.895743780157621 1.3401225002875556 
1.755205682375573 0.13581564369709984 1.8026423638407878 
1.7566954159030717 5.410929626503351 1.6652960371288215 
5.263594493257013 2.7956943501989047 0.062765622765767 
3.247382748825602 4.68583088829558 1.1954709800112402 
6.4933305303457365 1.335566716218231 1.0196277144715593 
7.001273225161352 2.058401270581096 0.5418384409449072 
7.237983508970058 4.100384812836052 0.815925517164593 
5.756137173764371 3.8143783163945697 0.6212726216596597 
7.254274199748063 4.88797540397445 1.3305938762050156 
1.2553282270246913 4.590729968046136 1.1235588394071703 
6.516502084251473 3.591900313521885 0.4733397823914317 
7.237983508970058 4.100384812836052 0.815925517164593 
6.249075875291044 4.0282934250126905 0.7683588157720925 
3.749952633404549 2.7754750026211896 0.0627065635479305 
2.7508201914999506 4.765027639415134 1.2407452820271738 
4.749438243648987 2.918194063321506 0.037142937738824294 
2.754056799014991 3.881891113383488 0.6658555607230122 
5.994525021255049 1.343016736890824 1.0140624759223862 
3.747917644722734 1.4765519263516118 0.9192382013722367 
4.252762645137863 2.305440858399926 0.37253030682431243 
7.254274199748063 4.88797540397445 1.3305938762050156 
1.4938883164385277 3.9103930398697893 0.6906981399316351 
0.7564403677298301 2.2009627508897034 0.4426369563415645 
2.50462311091626 0.5221344131181918 1.5410080119546141 
2.245179483966475 3.3942063272699152 0.34705490630636787 
3.5040146066928894 0.48077687266168995 1.5885441705615009 
0.006219278128718852 2.238572410467679 0.42856109766283734 
5.507566441266393 3.8907153588310965 0.6772017651707909 
3.003050877338598 4.172821913235936 0.8555210664870196 
6.999367362264315 2.494168746640263 0.25777839559039295 
6.50538607815831 5.440794316457875 1.6937050620397427 
4.5071104645447955 0.23017678226119187 1.7347509218610464 
2.2616325182279935 2.2502792936294904 0.4123091516251033 
0.5003848998481475 3.8441895363449743 0.6455422280312136 
5.50545504997486 2.752331005529871 0.09524897085264528 
0.7519014567874962 5.72538497153696 1.89250210864675 
1.7566954159030717 5.410929626503351 1.6652960371288215 
7.25596642997601 5.635667667927951 1.80431696440231 
1.0069752255710682 3.659093531681724 0.5354737005349351 
5.756137173764371 3.8143783163945697 0.6212726216596597 
5.505807815274666 3.2570684021772625 0.2565150811580741 
6.755663367438135 2.0405765321540676 0.5509918657513898 
2.7605713343205736 3.465235352863646 0.4032325356023004 
4.493481657536565 5.516921697320629 1.7391667409074214 
5.250976036749006 0.7635387121615506 1.3932149903049276 
0.007690697975134437 3.349896984289821 0.3263068823794693 
0.7617376163065956 2.70644573235718 0.11183854975575509 
4.0068686311492385 1.3447036790393814 1.01359524898181 
1.501067440301456 0.19734122683956754 1.7682057997837142 
1.0097498610890123 2.9547774908473188 0.06007281051041333 
2.992171972801479 0.06946397061021203 1.8116471901252746 
3.2574210587737618 3.715424824567095 0.5564741135989144 
6.998220082439801 5.520899393915697 1.7422744014657263 
2.7485577064787634 0.7683869075570641 1.3937442258177175 
1.2422303451569339 0.678125373991201 1.4544533820827852 
2.5074549595883817 0.3337257898275044 1.6841311096929918 
2.2548310966195784 1.3652617647174512 0.9881535098738359 
5.503084414601227 0.6631698363032557 1.4594714068874186 
2.2400950272451654 2.0365584920863995 0.5738369295317404 
