1.499961889084531 4.009904345959231 0.7763082892421658 
5.753818633696467 4.4271436246708795 0.33452287574410305 
6.5083113500650125 3.0223366818714323 1.7247908144638262 
2.2538326324150493 3.4929901215845267 1.2691277225422564 
0.7532939887253675 1.8612293905915878 1.8262062048768013 
2.759447195942524 3.1187289857671194 1.6335494741007377 
4.758370915952358 3.510001567351435 1.2561154037516506 
4.2508212988555405 1.872719300248675 1.9947616081596418 
3.7494798333671673 2.905975260752759 1.8495892634976732 
6.003778785857637 -2.321703038988966 0.037432373756149474 
5.244641693025989 -0.6547783753697032 0.8425205069817335 
3.996891689234433 4.218281384642542 0.5487068850282324 
4.745354756595601 0.03793214808317465 1.4235978549630355 
2.4939883377264844 -2.31376644573979 0.7163546454196499 
2.5056184723434023 4.42954519630338 0.34817703074917944 
2.2377799913022627 -1.804745336895424 0.4150117108463578 
2.999848939874375 0.48559429011692623 1.2971895887686413 
0.26800328374332 2.3234394280401727 2.2996562249750174 
5.757429158238486 2.4725606103515765 2.3024776196011962 
3.742326280147815 2.1438438125511228 2.178093117231481 
4.508452071628237 4.048213588420995 0.7168907287241812 
1.9981865348174301 2.512202353411452 2.232897739335195 
4.001734446699948 0.260883201761722 2.280242546505643 
5.248523586857967 -1.4507394274748195 0.8404316246484786 
4.761106434699338 -0.8993157844051899 1.411301082489453 
1.9952916160280274 -0.026500807331821388 0.14251631134192733 
5.0044871829017215 1.569066901468461 1.5159982672950971 
2.499520082860285 3.543541292754941 1.2154322746576207 
2.760254074955528 -0.5652315654410917 1.0154223248915113 
5.496687130966888 2.0382229999904817 1.9903699576809766 
6.496467164667351 1.203229108652232 1.1629518398943193 
4.4969337753585705 1.4828418975146374 1.7078244386213122 
3.24952299045487 1.7854554547576438 1.7411937807229423 
4.2620110327195535 2.8000293919029082 1.9623866435964286 
3.5057056883098827 0.5356022877303882 1.8902998215457372 
5.508102362321216 3.03324898375205 1.7178127819882287 
6.5083113500650125 3.0223366818714323 1.7247908144638262 
3.7577072700440035 2.56677866734114 2.186837405380124 
4.759583716149915 -2.153412031454741 1.4233200214114003 
4.750068960499444 -2.3498928701550668 1.4215653168291467 
5.255049734495608 4.252824574284527 0.5111631424767877 
3.498654929825523 -1.6481744438978752 1.8824318749449165 
2.5098147341555417 3.702703229806323 1.0523756904600026 
4.248215292557519 0.5639845545959273 1.9887584407398249 
3.2506082972952792 1.888942168988961 1.8509389046871756 
2.996656703989711 -0.08152334179166801 1.2965788418143478 
4.259954348573958 -0.615555027899518 1.9948537355021116 
6.998635553722916 4.325906909408151 0.44888106335887745 
2.0029237257974137 1.0775112399338869 1.0353875423276204 
1.002935925912118 3.435886517622316 1.330146814166651 
4.751640236228306 -1.542924921236318 1.4047002371135886 
4.5137178405307035 4.286632335151982 0.4816421717792395 
1.753772811004751 3.98015797084938 0.8041486679561031 
3.492214191439385 0.9691955658053076 1.8885426782533745 
2.498214587182147 -0.4524971442896628 0.7252444250598495 
6.003881716217321 2.7400337278967015 2.009989569671811 
3.5151617595915616 2.203591790243974 2.1623335103461714 
3.755489752983804 -0.18663302797836154 2.1711529734915906 
3.2578830474301665 3.3976158427916783 1.3641142777822826 
4.50092050054925 3.2780416535696006 1.4776324878641875 
3.7536886644065217 -0.8943070175588369 2.1687208120729697 
5.504024341411117 -0.22645918828674744 0.5369095797976071 
5.002556935272145 1.711235586503028 1.670657846870821 
1.499155082370157 3.7739792560819967 1.0003992679985365 
2.5071984558295815 3.9883309656604617 0.7744410263332101 
5.506448630758065 4.3574958594674555 0.40857024631556793 
3.5003027980040287 2.106726385312916 2.069650462014385 
3.498654929825523 -1.6481744438978752 1.8824318749449165 
2.009761418740049 2.753087617278687 2.0051809133216296 
0.2529865298088558 0.21485751673464545 0.18108178645003065 
2.5117598422110374 4.71076140582215 0.05324738851352876 
2.2578859170916497 3.022214086708186 1.7256606143637747 
2.2476293372859284 -2.3194800524372226 0.43001777282030335 
3.5164624339422916 4.76231378061034 0.08789366995897148 
4.9993377934056005 2.302664063576306 2.3144550780803965 
3.2443107072495105 0.048905135130572513 1.5814157389954948 
5.998339132839675 4.30771463694315 0.4626689793697757 
6.998669707055025 3.5362483273991088 1.2176299150205363 
1.7593453004378365 3.7867582545806178 0.9769041708587606 
6.003089597362002 -1.6566478598251408 0.028994015957098718 
3.7449638336043725 2.2638293986342855 2.289382538273276 
4.50139453878852 -1.4791978364901601 1.719582668896522 
7.003991967813176 4.375818030690657 0.4021392241629214 
7.004869311105812 0.011474017272199965 0.05162725213578972 
1.7449372276226056 2.9721874865617623 1.8033196150172532 
0.25119409133724196 1.1831805367888477 1.134225023401403 
3.260647760866972 -1.7195139940536273 1.6014089261371 
1.755090423669566 0.1637833878168009 0.13790178358502145 
1.9969563735709386 -0.4910063492136303 0.1426430732319418 
6.255510297751918 1.5954731845059642 1.56120107807985 
2.251448531324273 1.4062792962251236 1.3581609600744922 
2.2511180872716356 2.3788747777908754 2.319465025214853 
4.257687017205581 -1.389464666352264 1.9951835395044408 
4.010917849861124 4.104768485867457 0.6558812866425715 
5.491209977415697 3.841555265490389 0.9141273335509718 
4.753479072555002 2.858094910596287 1.9206662188968666 
5.007012151610108 1.6861868487282634 1.6411645106809565 
5.24577955088173 3.08139778083789 1.6804423210539694 
4.503851016628621 3.9971621760120413 0.7700968635599512 
5.753758566066858 3.455101714094967 1.300560025133192 
4.999076658453062 -0.39908927923465976 1.1356233603539505 
0.2529865298088558 0.21485751673464545 0.18108178645003065 
6.007758836610744 3.8399038838805644 0.939011423269431 
3.0190332934832655 0.26161519305908604 1.3122944428850174 
2.2511180872716356 2.3788747777908754 2.319465025214853 
4.011669186245455 4.081421301776225 0.6863030039287913 
4.255834521207534 0.8312659654588249 1.9907429785715638 
2.000351455387417 1.0792134044876602 1.0465510266117006 
7.008134121654942 1.7045389494558687 1.6743130122237209 
2.7522016579380852 3.7855828877401314 0.9589550443103085 
0.762831762780446 1.4359330599407572 1.4014717898595028 
5.260049366891043 4.313791370130734 0.44341022969397137 
6.753278049259222 1.6620874080875365 1.6255554362860223 
1.0035582765013535 0.6416871229246653 0.6169270306190886 
5.5080392041985355 3.1762658015316205 1.5871077161807132 
3.0016884265142916 3.204702139040287 1.5547798761605247 
3.750418105747599 -1.7485315636304344 2.158228934934741 
1.005147843989604 4.813315895341631 0.03087612167484291 
0.7631014051380539 1.3322358061131985 1.3078360759796512 
2.754471755606182 1.350209503249956 1.3007444785704771 
6.50952022166887 1.585822215753262 1.5599976525047838 
5.007592501381436 3.5637386050044397 1.199656419007468 
3.2506082972952792 1.888942168988961 1.8509389046871756 
7.001212558403425 2.619698987741395 2.138334712023708 
0.5020772313653645 4.424712624123949 0.33938561611481927 
1.7509875379626125 3.1381061431497432 1.627508293056053 
5.998339132839675 4.30771463694315 0.4626689793697757 
6.767208325492316 4.516394140592072 0.2491431859021136 
1.2517092731060755 0.8849838534382671 0.844578672345286 
6.996769816851835 3.647535193745883 1.1110957509071724 
3.5007236012406038 2.6641333452829534 2.09153546551104 
5.997760444662026 0.9285166260193873 0.893220417011316 
7.008921456860454 3.2523517701527696 1.4955172607754714 
3.2443107072495105 0.048905135130572513 1.5814157389954948 
3.503696936889233 -0.9775685832182691 1.8881531480259226 
5.261438681386557 3.8909327633216533 0.8685543204540951 
3.4982292038800233 -1.6672321469829072 1.8833577958835912 
4.503288536596048 -1.0454644203716525 1.7115915556777415 
6.261771152265455 0.3092881921851154 0.278825791469156 
2.257803626891759 3.0273642092197766 1.732039335967503 
5.256718547023432 2.685338515631369 2.0853683745431044 
1.7534955554834708 4.201816437749483 0.5602315704691361 
4.262993651114961 3.2777561297726154 1.4774076549237054 
2.746346907543421 -1.5362448174014156 1.024783193833344 
6.992190736339752 0.8654436960094296 0.8300348783036895 
6.756718813921176 2.9678221807737395 1.793540217840376 
0.9957635285765919 1.1944460022920969 1.154873099699394 
2.263855093626925 3.174882216212106 1.57434413731142 
6.000789173607756 4.430750257670344 0.3413249991957606 
6.261771152265455 0.3092881921851154 0.278825791469156 
2.4939883377264844 -2.31376644573979 0.7163546454196499 
4.502496817580766 -1.7469558258973494 1.7105967949583467 
1.7475704060655934 -0.0005315019445499385 0.03099369933977994 
1.4977508993319146 1.354988659954793 1.2987779707169653 
5.997760444662026 0.9285166260193873 0.893220417011316 
6.9992898244779695 0.5421549750225544 0.5010255064882653 
4.505740504831468 -2.246072654777193 1.7035663403663475 
3.9973106136362193 -1.207591032172889 2.3022392008771067 
0.7534228445369545 2.8542704939003043 1.8932561970455968 
0.7529197974007221 3.3235899131087177 1.4386067236466813 
4.511447274329294 0.2580047715071361 1.7068181358842671 
1.2479651320746226 0.7519450438840727 0.6973448031734758 
2.2504687944480177 -0.841627715046508 0.4361537144316987 
6.001393107266078 -0.24695484101280676 0.03612867535674395 
1.2501854998822262 1.7862677678252 1.76169101950718 
3.9949296471665456 3.8775174737032727 0.8821941743995741 
6.755910505746887 3.3731590543520333 1.3847065275188029 
0.7517016909557972 4.337888277715246 0.43975815944119034 
1.2591750080779007 4.255438942061957 0.5270931086554097 
4.758641342036435 0.9494290868349631 1.4209956776117725 
4.005598742888916 3.7583390527519476 1.0156452772197675 
2.2578859170916497 3.022214086708186 1.7256606143637747 
1.2461667567799235 1.4920974372081168 1.4499722864115694 
0.9981200782021906 0.1773473132171035 0.14315586039167616 
0.010223081407207254 4.189080492033581 0.5768776020778174 
7.00019447595114 3.5085864984101156 1.2578780657052624 
0.5017315207138864 0.5639084940272936 0.5212681869628512 
3.0017956325709294 -1.9412693154670757 1.3009156783861422 
5.494140650065501 1.2431669657346924 1.2166036385250125 
5.257068135965397 -1.3396226424190951 0.8464115358692799 
5.0092043444715015 -1.1469460991494045 1.1270930225512372 
6.012118537107991 3.5446623309051697 1.2213531346324527 
6.758285007039013 -0.06375053532269637 0.05263458615770897 
4.253511497562139 2.4762070685435833 2.304397740517713 
4.252937516372271 -0.9635942782556706 1.9950892218888299 
5.253889277195026 1.5424053120406076 1.5035938803548143 
2.006216043768253 -0.1314913361990481 0.14550477266711084 
1.006531108062402 4.43928986522929 0.33204392225267026 
3.5007236012406038 2.6641333452829534 2.09153546551104 
0.5065346579460909 2.3276018813701644 2.2999424383134315 
2.9911367256934627 -1.841824571875755 1.2925044059361501 
3.509559932732375 4.817776813651793 0.03905324522520387 
6.5016033736378835 2.5962509157028943 2.158718901316142 
5.508124333177205 1.6366384743601097 1.58379150500731 
2.499048870600289 -1.3866937980863867 0.7153533186184198 
4.759422796651177 3.0098294810569186 1.7435630777043847 
0.252920885184136 1.7517523653617937 1.7093310548124088 
2.999817749210597 3.572629395250979 1.186835462436523 
5.750862782838589 -0.7011236473956899 0.254849758365272 
7.007227992857002 4.0703261897279965 0.6844642168071714 
5.493775733953915 3.247319155727457 1.5155150568248372 
1.9952916160280274 -0.026500807331821388 0.14251631134192733 
1.2599237925666231 1.0827585160251525 1.045269059335628 
6.490874215280946 3.20326458806625 1.5702491894910018 
0.008028523093055533 1.150644105581339 1.1079145522359652 
5.765579206163596 3.246259344212116 1.5227213176154675 
6.248168732697014 4.597022152216855 0.16353326316278627 
1.251698522314563 3.545243810996681 1.224052522334511 
5.254236139641082 3.912131564636355 0.857011648289117 
5.755204627740873 1.8178094347958684 1.78365363311054 
1.7459866695446342 -0.055895918412277076 0.06461263592564617 
4.00323888603058 4.436984799077708 0.3331109816985508 
6.259493897797833 2.4337915252805975 2.304902947680717 
1.4976143061817522 1.2695950522159352 1.231132576670499 
4.258524922402609 0.7936040550664512 1.992600374857287 
1.7498124464221751 2.0119061306435073 1.9790090860131666 
6.2543936044809625 3.476299757389277 1.281842161836472 
3.512724543832494 3.32712048638156 1.4299434836249416 
6.761595993761884 1.364831627057593 1.3091800860495992 
4.499444122509231 -0.9439567710116482 1.7098017841503033 
3.7554410410634516 2.9601186579629677 1.7967708281828374 
0.9818256261332519 0.61055642376974 0.5682924277315519 
0.5069482472953996 4.192922500256793 0.5709056333956712 
0.9999755488255019 3.1299831774930156 1.6251296300875187 
1.2552199496684084 3.4548158483245826 1.313376206851303 
3.2511100442625045 -0.9599229782974817 1.5915960835983523 
6.24736376806296 2.3912289713362465 2.3119684111076637 
2.2412164214114427 -1.2380638245499727 0.42948199547012345 
2.254980029586587 3.6181062853195756 1.1460990969985105 
5.0092043444715015 -1.1469460991494045 1.1270930225512372 
0.7550374509796651 0.19750679555936998 0.1643944568012381 
2.5098147341555417 3.702703229806323 1.0523756904600026 
2.256846539796652 2.619499537891342 2.13366437534906 
5.248801885429607 4.349110086675112 0.4187415335806389 
3.509559932732375 4.817776813651793 0.03905324522520387 
1.5041530819090314 0.39515380362816444 0.35333195370702813 
4.263761072794999 3.107809946513428 1.6523004361255824 
5.7439423278004575 -1.2948849648802974 0.26703631110209425 
2.5025677353949662 0.49617180745927425 0.710584876538357 
1.4946090311773501 2.6232720320556506 2.1205859547770016 
4.010828711089696 4.435579646238412 0.33445245994710116 
6.255510297751918 1.5954731845059642 1.56120107807985 
6.002188162364024 -1.1368871999606374 0.048781299724691564 
2.9951488131445565 -1.9736305521063866 1.3009427498358448 
2.2522826401817513 1.8675807949199708 1.8127461978574158 
5.502582109455743 3.219086216610291 1.5254562441539277 
2.749749204057422 -1.2460111484220007 1.0232163565337957 
0.74276796114254 0.3924206610655087 0.3477853293851198 
2.2539389027175787 1.5222555893498322 1.4916822653271526 
4.508452071628237 4.048213588420995 0.7168907287241812 
6.994543805937975 4.30886987325292 0.4684859625515863 
6.262485266945933 0.16748812522533293 0.1364668673209511 
6.505536209210457 2.564934415654653 2.189752777877998 
5.508124333177205 1.6366384743601097 1.58379150500731 
3.752566831166934 4.718391045611546 0.057710454322362145 
6.246219735357216 0.1777317350837563 0.14307682744969819 
3.741391593992973 2.874938274385905 1.8899415025312696 
7.014009771312686 3.587410871311409 1.1662587301351541 
3.008279797813525 2.834286957863081 1.918361026454668 
0.5032193358128276 1.9661593358653497 1.9124099711440206 
4.25403748892188 4.144151599052795 0.6221145706438739 
1.7522418790692729 -1.9611503853857712 -0.0006859717015396847 
2.49680559683524 3.5201208400207356 1.249861636238989 
4.499658248233 0.2097861993638539 1.69956901717059 
5.004079038317603 2.9199160639866295 1.8354384782196267 
5.491209977415697 3.841555265490389 0.9141273335509718 
6.2443619415600375 1.1813357284283166 1.135259630425182 
2.2476293372859284 -2.3194800524372226 0.43001777282030335 
0.7606835402367027 0.36409529383139616 0.3232605923620939 
5.011053950924744 -1.099597940495589 1.1284454481686308 
1.4933684392388789 -0.10004135197851892 0.020279397586710227 
1.7562094529081773 0.5524465254698313 0.5245652771228888 
1.7530505712005828 0.1704192342755928 0.12792993160299942 
0.2478832375453925 2.026518488748659 1.9968864502274122 
4.758370915952358 3.510001567351435 1.2561154037516506 
1.0033066468844303 1.0707659318494 1.0365327512409226 
5.744836155099612 -0.9107827426750071 0.2502317764197529 
3.4991765899569214 2.05877101530763 2.012600144761992 
1.9934493229516044 -1.1716018610531673 0.1351577145159112 
2.746633233225451 1.2547331518443303 1.2205605791296568 
4.252937516372271 -0.9635942782556706 1.9950892218888299 
6.003242987502608 1.7023834187741391 1.6602531672070948 
6.761595993761884 1.364831627057593 1.3091800860495992 
7.00019447595114 3.5085864984101156 1.2578780657052624 
6.000739294173714 0.10852500740582592 0.15821677087624997 
4.259595673090427 3.462657792466971 1.2944410720497708 
7.0050904209092435 0.8736363254614082 0.823486208522136 
3.2573228885203958 3.9218323051108785 0.844051015141962 
4.249757640457328 -1.5807560185403318 1.998563675348731 
4.253701725291257 -0.8256486841528599 1.9999494801557407 
3.0089384308422966 1.4827078030002512 1.4420279078881126 
1.7475704060655934 -0.0005315019445499385 0.03099369933977994 
6.001921834505773 -1.6145097189737072 0.06360853753761916 
2.9911367256934627 -1.841824571875755 1.2925044059361501 
7.005422767677031 -0.06777321078220191 0.033873169600198476 
2.2412164214114427 -1.2380638245499727 0.42948199547012345 
5.004079038317603 2.9199160639866295 1.8354384782196267 
4.005598742888916 3.7583390527519476 1.0156452772197675 
1.006513648162729 1.5119615475543713 1.46540454840421 
1.7552292874453543 3.0037649529699064 1.7483811021514313 
3.00212217917045 -1.027932610161706 1.3023166402406463 
6.749022819015747 1.8777601429487565 1.8318273557647489 
3.24432190972388 -2.0779703579839746 1.5885837916478573 
2.2478652159465797 2.0496082893833374 2.007824299451144 
3.0057858556234187 -1.0137105042777448 1.3108875748217195 
6.754332411512181 1.630028521988272 1.5973957553955618 
3.763404989794854 0.6850069192900341 2.182724716437971 
4.258063108567704 1.3111488454396156 1.9978746623379389 
1.0038758503484173 3.822022335270278 0.951177791307343 
6.255066791349043 2.662618222790219 2.099681273089983 
1.2591750080779007 4.255438942061957 0.5270931086554097 
3.0008863508019767 1.5345885168126383 1.4907617285080539 
2.251448531324273 1.4062792962251236 1.3581609600744922 
2.7464558519797233 0.03058310873192579 1.018081244310926 
3.258512149693595 0.14588195404376947 1.5883551388436459 
0.254084955027607 1.7822514743315323 1.7174473793828324 
2.7464558519797233 0.03058310873192579 1.018081244310926 
4.50092050054925 3.2780416535696006 1.4776324878641875 
4.997231369479742 -0.8650512358602658 1.1305417555132171 
1.005147843989604 4.813315895341631 0.03087612167484291 
3.9973106136362193 -1.207591032172889 2.3022392008771067 
5.0044871829017215 1.569066901468461 1.5159982672950971 
4.257733802230377 3.1514118192153275 1.6011780126802109 
1.005147843989604 4.813315895341631 0.03087612167484291 
6.751885053158417 0.278780456837257 0.2384972499948994 
0.7534228445369545 2.8542704939003043 1.8932561970455968 
5.500469664302813 3.1073446361227837 1.6454656425857328 
2.254501945241035 4.493863238817115 0.27781554800821356 
0.4945659887244081 2.5651777303853067 2.1978067096839005 
3.486118102608108 0.9718620251160603 1.8886663388095053 
2.0006801060482258 2.7287502287022027 2.028990998095237 
1.4933684392388789 -0.10004135197851892 0.020279397586710227 
6.252216161453569 1.7365331965001212 1.6951506765136315 
3.7551728054696683 2.267232380714324 2.3028333453063374 
1.004330684489737 1.640347080001734 1.613489107610789 
1.4964404961057298 0.2652803496597583 0.2417698001150425 
2.512439440902322 2.8992432821626877 1.8677050643252089 
4.002030352861975 3.4321929932806117 1.3291771375869181 
6.262485266945933 0.16748812522533293 0.1364668673209511 
5.257002204770228 0.46384738669846964 0.8319302183287252 
4.253511497562139 2.4762070685435833 2.304397740517713 
6.010722319797156 3.3200418145072694 1.4439363594077 
5.765579206163596 3.246259344212116 1.5227213176154675 
1.5053001803147328 2.9729663115803087 1.7830175221395157 
0.2424544152105629 2.7461964878004936 2.0047512621792833 
4.23672137815753 2.9363466053761806 1.8182695290822746 
5.997073597916769 3.603186743519517 1.1484429469790942 
2.2530769665386665 2.754205908634257 2.0091080650725406 
1.5026811098656108 4.685254363428763 0.08354980637721167 
3.4990107928386953 2.81859822596832 1.9559475636795807 
0.751600415626394 1.0727219262358758 1.0223896193943076 
1.9969563735709386 -0.4910063492136303 0.1426430732319418 
4.765031583253291 2.76112901130328 2.006594730927213 
-0.0032840429747096242 1.6071668796771093 1.5622287483563866 
1.9969563735709386 -0.4910063492136303 0.1426430732319418 
5.26272955658601 2.284168475027189 2.2260341624845004 
5.998749289734692 0.1657302599392135 0.1378791951480332 
4.4995935550854025 0.10268391239739308 1.698935840622002 
2.754597815313942 4.250063899496641 0.5146197066006144 
0.7508200075206639 1.068018716836852 1.0362297420976236 
4.005598742888916 3.7583390527519476 1.0156452772197675 
6.000739294173714 0.10852500740582592 0.15821677087624997 
3.2470914855665827 -1.3148726186676456 1.5816247813367323 
2.498382531627612 -1.0649736506003284 0.724920779853308 
1.5123034852307664 1.4535520246129008 1.4293647071882483 
5.24577955088173 3.08139778083789 1.6804423210539694 
1.746279954778738 -0.9398763816964523 -0.00018044825510469596 
2.5073009460659827 2.1112231600062064 2.0775766207269375 
3.4993404799385597 0.004101031618058954 1.8942118881027108 
6.9993500664104635 2.781840772650902 1.966821969271987 
4.76206639540483 0.655092035243967 1.4166527502505148 
2.2372177505161477 1.6928243859052363 1.6542008332994522 
0.010223081407207254 4.189080492033581 0.5768776020778174 
5.764069928555233 0.7646698210909253 0.7384083894906344 
1.5119907717300767 4.252051049192797 0.5175903906199625 
6.767208325492316 4.516394140592072 0.2491431859021136 
4.255834521207534 0.8312659654588249 1.9907429785715638 
6.749022819015747 1.8777601429487565 1.8318273557647489 
5.246816062144361 -1.13372546424687 0.8434988403452625 
1.4933013694603137 4.007069867340529 0.7600114619332118 
3.755520103418727 -0.5701539438131701 2.173900641666315 
4.754510989128367 -0.6823886224589761 1.4217008599940755 
2.263855093626925 3.174882216212106 1.57434413731142 
6.252856238623314 0.701281458395835 0.669711217933983 
1.0082486042550818 1.7666867253850784 1.725927320324195 
4.745471801440237 -1.720079599654936 1.4142002910262657 
1.7587611999662918 2.43618482036956 2.2930093175519572 
0.008054468086589486 3.8021582562211087 0.9675821653101426 
3.2485092873114425 1.3898862611813145 1.5852326892732895 
3.760979848256504 2.079489925896612 2.178326882330466 
1.4964404961057298 0.2652803496597583 0.2417698001150425 
5.74886971209997 -0.23861029391032607 0.260391301573453 
2.247676525323977 1.206029850146557 1.1613490104414326 
4.254770570393382 -0.49065813200749664 1.9931942121662907 
3.0056374735021367 -1.932068100639731 1.3111568859272944 
1.250987602144622 1.3592709580903 1.3226961482304094 
5.753481918397526 1.5109903045142288 1.460724216561792 
2.2572694180969313 4.59889227100389 0.16476708112944907 
2.243393356843714 -0.8173250620336507 0.42444390546351596 
6.496467164667351 1.203229108652232 1.1629518398943193 
0.5053723553199179 4.513574933930402 0.25848577030985154 
2.492056389672721 0.4942496533050362 0.717713004606366 
1.7468754485294697 2.0547929990361937 2.0194876155632824 
5.764045297086402 0.9155401176426693 0.8872054536715307 
0.25119409133724196 1.1831805367888477 1.134225023401403 
6.26661197477191 4.798334228773958 0.0376856102567006 
6.505536209210457 2.564934415654653 2.189752777877998 
4.749609630895228 0.551762633763964 1.4190637038108078 
1.006531108062402 4.43928986522929 0.33204392225267026 
6.252413941399769 -0.08384270466481811 0.02793629789167524 
1.0035582765013535 0.6416871229246653 0.6169270306190886 
0.26024533859733523 4.497311651588582 0.2683870247179913 
5.2644914464542145 3.3737037037798348 1.3982859368822942 
0.762831762780446 1.4359330599407572 1.4014717898595028 
5.751937740011185 1.8246119325339116 1.788884014527941 
0.74276796114254 0.3924206610655087 0.3477853293851198 
5.749121771151056 2.4445195544939193 2.2959121873703996 
3.751344089089866 -0.8041931914327505 2.17976858485948 
3.505603591209872 4.232595946623666 0.5223233672400245 
4.749609630895228 0.551762633763964 1.4190637038108078 
2.5165335810701404 3.6180561634267097 1.146606632263041 
6.751885053158417 0.278780456837257 0.2384972499948994 
2.996429114224507 0.20672945173773966 1.306734896467183 
3.495671631299174 -1.7128554273242953 1.876130289809886 
6.762544628884054 2.5537724612591766 2.189478185193407 
5.757659922832797 -0.39896763888015696 0.25367052759998665 
2.009774408911571 -1.8545617767902773 0.15231362224188028 
1.000428382187616 1.3462961005761644 1.3144078419743073 
0.7517016909557972 4.337888277715246 0.43975815944119034 
6.761816426106201 3.9759456899162404 0.7896020189757164 
2.2517617744855385 1.229720521361054 1.1944131062589185 
4.259831616983912 -0.38095141350928363 1.9971143326129812 
0.4984786552109671 2.621903916866347 2.1321377229232894 
5.258667236648758 3.6720912520131477 1.0883033456965385 
2.252118926305845 3.325282397215438 1.426222667075486 
5.9994103961753025 3.7155572431553168 1.0428445839765152 
1.7526620381838165 -0.46951107197611885 0.004066852399483294 
2.498382531627612 -1.0649736506003284 0.724920779853308 
1.4945365467061966 0.40868331614422954 0.3711126836453204 
6.24736376806296 2.3912289713362465 2.3119684111076637 
6.003242987502608 1.7023834187741391 1.6602531672070948 
5.757825182574795 2.3154042601570697 2.3059768589063956 
2.001865606238981 4.370894981551467 0.40870569767227455 
5.744836155099612 -0.9107827426750071 0.2502317764197529 
7.008134121654942 1.7045389494558687 1.6743130122237209 
4.006847080264598 4.582911596793407 0.19684611170716504 
0.2544041746311493 -0.11091061323846842 0.011770852357372595 
3.999123021805689 -0.46808770863847077 2.289822566817539 
0.5020772313653645 4.424712624123949 0.33938561611481927 
1.4994844743433342 1.881390844445041 1.8423094389631227 
3.244526267301922 1.6159296805282826 1.6757584848255402 
5.00760650377491 4.276794619427885 0.4946499942511275 
1.5053001803147328 2.9729663115803087 1.7830175221395157 
3.997387043097218 -0.48155571379806245 2.297585538685768 
0.0010468766782095729 2.062890301097551 2.0217431395805177 
7.010906221886979 0.42060291251406273 0.383050941265959 
5.011053950924744 -1.099597940495589 1.1284454481686308 
4.260213659972036 -0.9205281634794352 1.9926093491540886 
5.006920592923675 -1.6457401818786674 1.137198122992156 
5.999747942777546 -1.2458010013298382 0.041934998493815434 
6.000160636482374 -2.1970732859117414 0.04582235592353897 
5.998749289734692 0.1657302599392135 0.1378791951480332 
5.001299636103687 2.0184899885283984 1.9780082599888609 
2.2511180872716356 2.3788747777908754 2.319465025214853 
3.250530829300587 2.4452513529209865 2.3059257345233424 
2.996656703989711 -0.08152334179166801 1.2965788418143478 
3.508944646217174 4.586625931714312 0.1749610767666126 
2.754171525159662 1.6759886291727497 1.616342526458903 
2.263855093626925 3.174882216212106 1.57434413731142 
2.2493783268938734 -0.42572695284630574 0.4283650168818502 
2.0113541053436927 4.778149297816946 0.059287911714904995 
2.733947392170985 1.004576799936455 1.0847782675849622 
6.000789173607756 4.430750257670344 0.3413249991957606 
4.007308321164936 3.0629296994597084 1.7006476192324365 
4.511447274329294 0.2580047715071361 1.7068181358842671 
5.744098287148666 -2.3297572923625127 0.26834856798360973 
2.4986400576723775 1.318212598606165 1.2753637988942372 
5.497254430368772 -1.0799214552745025 0.5659502556336036 
0.7608006784333479 3.6802158223205583 1.0719514911590455 
3.7538283029308053 4.155399680514945 0.5909577839657019 
0.008054468086589486 3.8021582562211087 0.9675821653101426 
2.99945782399641 -1.4795203102439636 1.2915979929994155 
1.5124269861467 4.705038112658717 0.07099431694209596 
2.5077456328410404 3.466866292982178 1.2984738266932867 
2.998405203832693 2.7500283929862217 2.0105702727186756 
5.504186134506261 2.586293525848811 2.156350380286911 
2.5132210585909376 -0.6426136276435693 0.7266973143232371 
2.2511868513405244 -1.0504081014527749 0.42862717338678563 
5.757230056480715 1.1338367396212414 1.1122940997004995 
5.010569279811491 -1.2863104447742375 1.1196669872578473 
4.0042122937463995 2.4859196976111755 2.2884907011490667 
1.0033066468844303 1.0707659318494 1.0365327512409226 
6.506970931530441 3.064301653048895 1.696378266997994 
4.248215292557519 0.5639845545959273 1.9887584407398249 
5.752225027772445 -0.1396635788085947 0.2552203869919849 
4.003272464223582 1.9317153913788039 2.3030172297554277 
0.5053170664649547 1.2733657662954465 1.2324716711127632 
2.7522016579380852 3.7855828877401314 0.9589550443103085 
3.2583736052545684 0.5617960719953653 1.6077674484343438 
0.762831762780446 1.4359330599407572 1.4014717898595028 
1.0126761537276294 4.106403507132142 0.6671254895234923 
3.2533236937236087 -1.4662143176717346 1.5963924854673002 
3.501582387355406 -2.092901173795089 1.8907189028356546 
4.001728567862429 -2.076342898160864 2.289114774716644 
2.499048870600289 -1.3866937980863867 0.7153533186184198 
1.2573959550480882 0.8773242232263821 0.8390494797008573 
4.250886931387884 -1.1768255966506087 1.9989744130153293 
6.5026723770072605 0.716781971525029 0.6875817824847498 
3.760608833259395 -0.812645895349048 2.1758388875834966 
3.2442606786659245 1.3399033913656306 1.5941900747170006 
6.001912688799411 0.5568272431627639 0.5181211058095992 
4.505285101740999 2.294528976889818 2.317960274991952 
3.24432190972388 -2.0779703579839746 1.5885837916478573 
2.7517013228356584 4.185180665264779 0.5870601670159464 
6.503896126556961 1.1748693101268541 1.1318238350090315 
5.508124333177205 1.6366384743601097 1.58379150500731 
4.259831616983912 -0.38095141350928363 1.9971143326129812 
1.9969489604208424 -1.5740923337631831 0.14216017728933067 
1.9969489604208424 -1.5740923337631831 0.14216017728933067 
4.25818490528119 -0.2728213174107452 1.9983916455006268 
2.2578859170916497 3.022214086708186 1.7256606143637747 
5.998824104580331 -2.2736991139056717 0.04325756042367038 
7.006250446379101 2.917658452608565 1.8353797458974317 
6.237146619712219 0.6327628353482031 0.5961006018991911 
2.5071984558295815 3.9883309656604617 0.7744410263332101 
5.255188107336219 1.7889180709597492 1.7401345863394955 
6.751885053158417 0.278780456837257 0.2384972499948994 
6.007896653644652 0.4494654543031586 0.4198250650538553 
2.2566433459980235 0.5867213393223802 0.5622538972465843 
6.26661197477191 4.798334228773958 0.0376856102567006 
3.741391593992973 2.874938274385905 1.8899415025312696 
1.4964404961057298 0.2652803496597583 0.2417698001150425 
-0.004309197684758448 0.5782692902524701 0.5233700107564946 
3.746134593887742 0.22505615144890823 2.1706897840079806 
4.0166529176610775 -0.46998663889169917 2.2864468766890558 
1.2604957911690944 1.8613554012352365 1.8164479724040279 
6.001393107266078 -0.24695484101280676 0.03612867535674395 
7.004869311105812 0.011474017272199965 0.05162725213578972 
5.0044871829017215 1.569066901468461 1.5159982672950971 
6.262485266945933 0.16748812522533293 0.1364668673209511 
4.254417645145179 2.046253375251843 2.07373917417564 
4.752249909438169 1.977596497311584 1.937609187892321 
4.003272464223582 1.9317153913788039 2.3030172297554277 
1.7553977647386334 1.0375966152656626 1.0004746018408985 
4.511447274329294 0.2580047715071361 1.7068181358842671 
1.7581915272026654 2.94129759692165 1.8309115108594856 
2.0198953974580998 1.7266811273813347 1.6738083974784699 
3.002081029899017 -1.1577100371895126 1.303402188766741 
4.504545927892826 3.3294990963855486 1.434032185208209 
2.0121460850868265 3.945749285962462 0.8087592960376236 
4.4969337753585705 1.4828418975146374 1.7078244386213122 
5.9994103961753025 3.7155572431553168 1.0428445839765152 
6.24736376806296 2.3912289713362465 2.3119684111076637 
1.0082486042550818 1.7666867253850784 1.725927320324195 
2.007514911792682 0.13425510361134071 0.2175686217381722 
2.7528455379683963 4.120195691016363 0.6382093776476575 
6.755710490708836 1.1587718472082216 1.1191370249136952 
2.260885637282131 3.919398072694612 0.8481821774636765 
6.496467164667351 1.203229108652232 1.1629518398943193 
0.2543798812331276 2.93631322410909 1.8243657581980233 
5.0109650142241025 -1.2594368483221514 1.1272843398154468 
6.762544628884054 2.5537724612591766 2.189478185193407 
4.766240112693519 3.2522455436939257 1.502168415793627 
1.9996594679053241 3.481677353879903 1.2901447690409775 
5.765579206163596 3.246259344212116 1.5227213176154675 
1.7526620381838165 -0.46951107197611885 0.004066852399483294 
1.253747631427781 3.3101687935961586 1.4569475193524275 
2.2372177505161477 1.6928243859052363 1.6542008332994522 
6.755910505746887 3.3731590543520333 1.3847065275188029 
5.508102362321216 3.03324898375205 1.7178127819882287 
4.755611954186391 3.3513990743862294 1.4103132542713923 
2.263855093626925 3.174882216212106 1.57434413731142 
3.0112638911619944 3.1378273641995986 1.6214836967565218 
3.7602303446299685 4.553281811509238 0.2198992463599434 
0.761426397136498 0.1615528740169354 0.1358666164902283 
3.765606092848886 2.9866313473708344 1.7678883075756116 
3.0016884265142916 3.204702139040287 1.5547798761605247 
5.5155715604986355 2.046175883020512 2.003567455913737 
3.0016884265142916 3.204702139040287 1.5547798761605247 
3.7494798333671673 2.905975260752759 1.8495892634976732 
3.754685561359167 3.503116017026927 1.2688390367594458 
5.0044871829017215 1.569066901468461 1.5159982672950971 
3.246447875855359 -0.6066952630299911 1.5841138385385352 
4.745944508623094 -0.5901135561856659 1.4254416947238184 
6.246219735357216 0.1777317350837563 0.14307682744969819 
6.5026723770072605 0.716781971525029 0.6875817824847498 
6.490874215280946 3.20326458806625 1.5702491894910018 
5.750409780540612 -0.394931664427289 0.26751685173594436 
4.748823936945837 -2.305563891571612 1.4230865537469135 
3.008197158703234 -1.0320562639643704 1.3056559169692517 
4.755611954186391 3.3513990743862294 1.4103132542713923 
5.758312974916465 0.198952692442669 0.2725082394540299 
0.5050351573053993 3.686973366600978 1.0624789435291155 
2.2613705092725387 -2.2892148139313715 0.42878274589418053 
5.5057998837993525 0.08028840887311232 0.5500504609586206 
1.7498124464221751 2.0119061306435073 1.9790090860131666 
5.75748113359074 1.8088880721506158 1.7523364337952159 
5.4955783829921705 3.353523004794669 1.4044276021135862 
3.503696936889233 -0.9775685832182691 1.8881531480259226 
1.7469812376644458 -1.5798731421836973 0.008671895879959599 
3.2555973908595046 1.8870422142632897 1.852236306892312 
4.759583716149915 -2.153412031454741 1.4233200214114003 
7.002862803867022 2.8384311727364526 1.9207821407244074 
6.992190736339752 0.8654436960094296 0.8300348783036895 
4.263761072794999 3.107809946513428 1.6523004361255824 
4.003733039295495 0.6940955433012225 2.2995515065041094 
2.5110692918271966 2.7511574006025445 2.004422632698135 
0.24960921561982513 1.6890561041052756 1.646158370974815 
1.0145306617887877 3.499295662500643 1.2718440999416623 
0.2502262062403943 0.811977102846583 0.775446755892843 
4.501787824488388 2.410595590048476 2.299598108639492 
2.2598971690738576 -0.519001931336598 0.4344190699496127 
3.002081029899017 -1.1577100371895126 1.303402188766741 
3.4919547488687357 1.4804871039663434 1.8794104425597213 
3.4991150483411984 -1.0570203210583728 1.8846460802991547 
0.5079814810114266 2.4704853951085206 2.3047052847844016 
6.003778785857637 -2.321703038988966 0.037432373756149474 
0.7522526875337278 0.8136904779929659 0.7648841950297601 
3.2544002974073485 -2.2953522064038525 1.5968801652752171 
2.0113541053436927 4.778149297816946 0.059287911714904995 
1.0044372989365422 2.592105338887902 2.162938148906053 
2.499665777636237 1.7921738489229475 1.7394638676834278 
0.2543798812331276 2.93631322410909 1.8243657581980233 
0.7508968516506639 3.559254495324256 1.2022759641651615 
2.512522853852815 -0.973669422528297 0.7314104008269208 
4.745095338464736 -1.7757269413582766 1.4233240607089122 
5.757469070844859 1.7205059255359896 1.6874582248939667 
5.5054297552456 1.491695690804208 1.4395470900907263 
1.2477203152863015 2.6497022561676844 2.1091248258992503 
6.994543805937975 4.30886987325292 0.4684859625515863 
3.503696936889233 -0.9775685832182691 1.8881531480259226 
4.996764701407307 3.5451134856655657 1.2185766356496677 
0.5053170664649547 1.2733657662954465 1.2324716711127632 
5.748662040481658 1.8438057921542066 1.7902027983476398 
4.758641342036435 0.9494290868349631 1.4209956776117725 
6.749022819015747 1.8777601429487565 1.8318273557647489 
3.509522529871388 0.8420162660454038 1.8945454528745125 
2.7515601912182683 0.2815008388500327 1.0162997666385378 
6.999963747585736 2.561510727148064 2.1974400324548413 
1.499961889084531 4.009904345959231 0.7763082892421658 
0.7522526875337278 0.8136904779929659 0.7648841950297601 
2.0039828416687753 4.7735445163518015 0.05970987624326616 
5.015278913719735 4.109585823324414 0.6498640335112813 
5.264172065279365 3.770704167609256 0.9987336907905344 
3.9949296471665456 3.8775174737032727 0.8821941743995741 
2.263855093626925 3.174882216212106 1.57434413731142 
4.752249909438169 1.977596497311584 1.937609187892321 
0.5025068510296552 0.325960298291432 0.29654886275671993 
1.9934493229516044 -1.1716018610531673 0.1351577145159112 
6.76329714298752 3.8965631950105215 0.8727594711213912 
5.001299636103687 2.0184899885283984 1.9780082599888609 
4.759583716149915 -2.153412031454741 1.4233200214114003 
2.9911367256934627 -1.841824571875755 1.2925044059361501 
3.9973106136362193 -1.207591032172889 2.3022392008771067 
1.000428382187616 1.3462961005761644 1.3144078419743073 
2.7517013228356584 4.185180665264779 0.5870601670159464 
3.5128331889787563 2.306168854196783 2.2998944920181863 
5.0014175452944825 3.985426612162894 0.7907927400060971 
4.2560860473816575 -1.2278860412046901 1.9984575069441624 
2.9975471546046064 1.4840703689276002 1.4356140798512558 
1.2452137543270017 0.35213605921770996 0.3254040652374955 
5.015278913719735 4.109585823324414 0.6498640335112813 
0.7517016909557972 4.337888277715246 0.43975815944119034 
3.492214191439385 0.9691955658053076 1.8885426782533745 
0.004819080550367107 0.7381519766585085 0.707259644579234 
4.508213773929786 2.6522583835624007 2.1078661523630613 
5.750845840409837 3.1752598340349354 1.58971953427527 
4.750790306695903 -0.9397678692405026 1.4201771837765569 
6.001912688799411 0.5568272431627639 0.5181211058095992 
2.242601775426873 -1.4250699327038585 0.4367279634664227 
2.7656263318033307 2.2455334746348035 2.1993596483053395 
7.008921456860454 3.2523517701527696 1.4955172607754714 
2.5038256667156182 -0.6346085719799013 0.7078260262878839 
2.499665777636237 1.7921738489229475 1.7394638676834278 
0.49948969880589306 2.800823087083272 1.9642070456394172 
1.247185417624518 2.695842705697371 2.061970256176661 
4.256779348579287 3.9262378411430894 0.8313021775279359 
0.5057723067032607 2.737161640566288 2.035850535475794 
2.7511528656403215 -0.7773241219728999 1.0150336933540178 
5.26272955658601 2.284168475027189 2.2260341624845004 
1.499961889084531 4.009904345959231 0.7763082892421658 
6.253344786882971 4.546158916242368 0.22016225140808862 
6.003242987502608 1.7023834187741391 1.6602531672070948 
6.007199775725373 -1.8987850623487084 0.04403578058930484 
3.0056374735021367 -1.932068100639731 1.3111568859272944 
2.256514326773519 3.0944988952001276 1.6721523822353812 
4.754466057897739 1.5530377047603166 1.590340473972039 
4.008335918409879 3.818081946681216 0.9475712572562331 
4.498827805874105 -0.19540292908644766 1.707455665604557 
2.758755686536783 -0.974275037893587 1.002613532087004 
5.750324694625169 2.6092788527295125 2.1418232950707132 
6.762018900506168 1.6746488624397702 1.6287719697774397 
6.765857912486683 2.220314263157505 2.1697555325160884 
2.256846539796652 2.619499537891342 2.13366437534906 
4.259595673090427 3.462657792466971 1.2944410720497708 
6.9992898244779695 0.5421549750225544 0.5010255064882653 
2.510133457601734 1.8537599409070795 1.8142391739354382 
3.0018195721198575 -0.2676653824642729 1.3146718078226611 
4.254770570393382 -0.49065813200749664 1.9931942121662907 
0.5048691606269977 4.257473344188215 0.5118262552843447 
0.2432006077152957 1.8333400615188364 1.7787088638178048 
3.4991150483411984 -1.0570203210583728 1.8846460802991547 
1.2426577004503525 1.7041219200823885 1.6618669206881156 
3.001434019025294 -1.2695456792166806 1.3080542012504186 
1.9977610481140091 -0.678025747280166 0.14067216673052432 
6.767208325492316 4.516394140592072 0.2491431859021136 
2.749749204057422 -1.2460111484220007 1.0232163565337957 
3.75221701459749 -1.560267081481844 2.1656597203736454 
2.5064317929993183 0.6989238685844169 0.7202447246377244 
1.7562094529081773 0.5524465254698313 0.5245652771228888 
1.9926905040616958 4.598111568469021 0.16241830307883914 
-0.0032840429747096242 1.6071668796771093 1.5622287483563866 
3.244526267301922 1.6159296805282826 1.6757584848255402 
2.741156274565658 -1.82995031524968 1.0097263823407425 
0.5025068510296552 0.325960298291432 0.29654886275671993 
0.4963676824912693 3.964668180993339 0.7911102811036566 
6.998635553722916 4.325906909408151 0.44888106335887745 
5.494140650065501 1.2431669657346924 1.2166036385250125 
7.017198598562775 1.4154186656890237 1.3743912305212826 
2.511930860427062 2.319403932803464 2.3025791678724308 
5.753926269457076 3.4674666588863787 1.2922048400618107 
4.508452071628237 4.048213588420995 0.7168907287241812 
2.250219182844314 4.514945307716878 0.2402034926007421 
3.486118102608108 0.9718620251160603 1.8886663388095053 
4.752995634700784 3.970093695311823 0.7923011416213325 
2.5165335810701404 3.6180561634267097 1.146606632263041 
1.2635709816719423 2.7937031007488216 1.9530000366586733 
2.513552660154051 4.039820272420617 0.7325764333085187 
5.508124333177205 1.6366384743601097 1.58379150500731 
6.74618173697702 4.162892899069146 0.6029139922515003 
5.002176408068575 2.5951206019901094 2.1662236544796634 
0.7512456965056095 2.1251260270612264 2.0737593121531757 
3.765072650581347 3.9838492483656602 0.7853208894839244 
2.496376282206137 2.1160893940984837 2.0662627745799207 
1.7475704060655934 -0.0005315019445499385 0.03099369933977994 
0.2478832375453925 2.026518488748659 1.9968864502274122 
-0.006893899315434083 2.3572715310196632 2.295117206295934 
6.507286611383645 2.8117975188303763 1.9461195474559851 
1.004330684489737 1.640347080001734 1.613489107610789 
4.007308321164936 3.0629296994597084 1.7006476192324365 
4.489912712961645 3.832685856711432 0.9315537956920518 
1.0050152093156821 3.1507129935745604 1.6013449527529509 
0.5067478433116818 2.001063379727992 1.9548663007403413 
5.764045297086402 0.9155401176426693 0.8872054536715307 
7.002568689764575 1.2682313534485252 1.2217168721988598 
6.002385106762129 4.377986327356291 0.4017734148646616 
2.0121460850868265 3.945749285962462 0.8087592960376236 
1.7542518015056046 4.61288965006812 0.15421821582422893 
4.249926060763655 -1.6617310896110054 1.9985926873514515 
6.745061739485626 -0.039614618586698715 0.09094338381396186 
3.0018195721198575 -0.2676653824642729 1.3146718078226611 
6.762018900506168 1.6746488624397702 1.6287719697774397 
5.256861771227989 2.0461992997350142 2.0136868855292542 
1.0004263800188724 0.6385062392720999 0.6022483554250493 
3.248319775682003 2.970217640386533 1.799581881279187 
4.755611954186391 3.3513990743862294 1.4103132542713923 
7.002862803867022 2.8384311727364526 1.9207821407244074 
1.4994844743433342 1.881390844445041 1.8423094389631227 
5.00760650377491 4.276794619427885 0.4946499942511275 
0.7571688560852489 0.40711813469567154 0.3644913270489194 
4.756725702626653 3.125070373355634 1.643952221177856 
2.2613705092725387 -2.2892148139313715 0.42878274589418053 
3.0008863508019767 1.5345885168126383 1.4907617285080539 
2.746734866863676 4.292046943256245 0.47946787425866166 
3.4930278146443556 4.5430133942266995 0.21694519162723946 
3.2634984417624757 -0.18318007986751106 1.6077021331829247 
2.758469340572511 3.5088174041963756 1.264260734271266 
2.496081043298168 -1.5797262782398371 0.7359471214630979 
5.000872392891823 0.36490846433663465 1.1325272049360793 
4.248215292557519 0.5639845545959273 1.9887584407398249 
5.011053950924744 -1.099597940495589 1.1284454481686308 
0.7560707135654459 4.571297337236655 0.18441874472751196 
4.260213659972036 -0.9205281634794352 1.9926093491540886 
3.7602303446299685 4.553281811509238 0.2198992463599434 
4.506585703233397 0.013189058076734648 1.6990860123422844 
4.499444122509231 -0.9439567710116482 1.7098017841503033 
6.998830483903058 1.8118974265386665 1.7616406773927342 
3.002081029899017 -1.1577100371895126 1.303402188766741 
6.76329714298752 3.8965631950105215 0.8727594711213912 
5.504768114299206 3.753283978947641 1.011843444278509 
1.246874547530559 1.369258871490881 1.3209672315818184 
2.5098147341555417 3.702703229806323 1.0523756904600026 
1.7587611999662918 2.43618482036956 2.2930093175519572 
0.25142472981336716 1.8917847313417464 1.8580789294352955 
1.7587611999662918 2.43618482036956 2.2930093175519572 
1.005147843989604 4.813315895341631 0.03087612167484291 
1.756151064462093 1.1067969125175596 1.073282752409872 
0.5065346579460909 2.3276018813701644 2.2999424383134315 
3.7551728054696683 2.267232380714324 2.3028333453063374 
3.4991765899569214 2.05877101530763 2.012600144761992 
5.744920361262864 1.4347126976938545 1.4099663974408099 
3.7576723420778 0.22986881957644067 2.1697311805644315 
3.7520700640184663 0.010777441210541881 2.1725630638691635 
4.003733039295495 0.6940955433012225 2.2995515065041094 
3.2472221901989315 3.030458606837344 1.737599032907701 
5.7560827129034315 -1.3914907103929708 0.2508337916400518 
6.001588077024895 1.443135059675299 1.3953601606015698 
1.4976143061817522 1.2695950522159352 1.231132576670499 
4.253491320795253 4.548218725061212 0.22382307580244748 
1.7581930801725674 1.6246656242359099 1.5713257094240738 
3.9993353860325143 -0.8583664415388713 2.297187578523837 
0.010223081407207254 4.189080492033581 0.5768776020778174 
4.006053245231139 -0.8902448155191243 2.2930996166105992 
1.7459866695446342 -0.055895918412277076 0.06461263592564617 
1.751980202364586 0.17148536170514886 0.12650889500488333 
3.7576723420778 0.22986881957644067 2.1697311805644315 
1.9977610481140091 -0.678025747280166 0.14067216673052432 
5.2646412870938715 0.8338422097509284 0.8994875411754971 
5.759286423172029 0.9932432525535196 0.9571680781877454 
2.512439440902322 2.8992432821626877 1.8677050643252089 
4.50092050054925 3.2780416535696006 1.4776324878641875 
1.7498124464221751 2.0119061306435073 1.9790090860131666 
3.75223941074134 4.186930525833735 0.5749220812706095 
3.2573228885203958 3.9218323051108785 0.844051015141962 
3.751344089089866 -0.8041931914327505 2.17976858485948 
4.254770570393382 -0.49065813200749664 1.9931942121662907 
2.7439059694998025 4.0053039036527105 0.7813281125911952 
0.7508200075206639 1.068018716836852 1.0362297420976236 
2.510600319546998 4.5027013883174725 0.2699812365709464 
5.749121771151056 2.4445195544939193 2.2959121873703996 
2.746734866863676 4.292046943256245 0.47946787425866166 
1.7631660153987005 1.4594354929185502 1.4270154894404155 
0.9955860617335451 3.78532579060484 0.9738327919950136 
4.501001621332121 2.566848329686889 2.19406054776302 
1.2497877270181015 4.489938301288447 0.2906691519232015 
3.009624592364828 3.07310786055197 1.6847081178604575 
6.000467339772403 -0.6689911066941887 0.04655581102403926 
3.4993404799385597 0.004101031618058954 1.8942118881027108 
0.008599807100084445 0.9323063311285924 0.9849196947896982 
5.505326700466911 -0.14089978084124224 0.5485456381972824 
1.0038758503484173 3.822022335270278 0.951177791307343 
5.746194163685719 0.3537801641284275 0.3835750341191479 
6.259118326186088 1.7649950980979336 1.7331017054440667 
1.004330684489737 1.640347080001734 1.613489107610789 
5.502763227195912 -2.003736130625187 0.5427961883812448 
4.492425793401376 -1.2049349235541684 1.7151253813626706 
5.2644914464542145 3.3737037037798348 1.3982859368822942 
3.2423611766833824 1.384819045269202 1.5830826261642978 
